NCOLS       210
NROWS       50
XLLCORNER          647500
YLLCORNER          148550
CELLSIZE          50
NODATA_VALUE   -9999
3010.12  3005.14  2997.74  2982.01  2958.88  2937.86  2923.61  2916.57  2914.05  2913.75  2914.89  2919.41  2925.55  2932.50  2939.61  2947.27  2956.38  2967.33  2981.04  2996.08  3009.13  3021.46  3035.07  3043.45  3050.81  3059.52  3066.72  3072.53  3077.80  3083.78  3091.80  3100.95  3110.90  3120.17  3126.29  3131.65  3136.18  3143.01  3160.45  3184.60  3213.64  3282.65  3321.47  3377.01  3465.82  3541.35  3545.19  3549.75  3547.71  3542.33  3531.77  3517.29  3501.34  3485.11  3465.30  3442.40  3429.23  3415.71  3400.94  3386.40  3373.20  3359.34  3345.53  3327.70  3313.02  3301.04  3290.90  3280.05  3262.96  3241.95  3218.20  3197.90  3179.78  3166.64  3146.17  3123.95  3102.17  3083.03  3065.39  3049.32  3027.51  3009.79  2997.35  2984.31  2972.73  2964.37  2957.01  2949.41  2942.87  2936.07  2929.46  2922.49  2915.44  2908.74  2903.10  2895.48  2886.65  2879.32  2872.78  2867.00  2861.11  2855.33  2849.49  2846.40  2843.03  2840.10  2838.31  2835.72  2832.00  2828.51  2824.59  2821.28  2818.23  2814.60  2811.61  2808.70  2806.22  2802.79  2799.60  2797.01  2794.41  2792.26  2789.12  2786.10  2784.05  2782.15  2779.63  2777.92  2775.89  2773.93  2771.89  2770.28  2768.15  2764.99  2760.83  2757.03  2753.57  2750.78  2746.05  2745.24  2771.86  2789.99  2776.33  2744.67  2731.37  2756.22  2767.58  2772.16  2776.04  2784.35  2793.68  2801.20  2807.34  2812.39  2815.28  2816.46  2814.26  2813.01  2808.30  2807.47  2822.80  2851.35  2891.65  2910.64  2929.69  2934.17  2933.80  2931.54  2931.63  2932.89  2934.68  2934.90  2941.64  2948.93  2957.78  2972.32  2995.60  3022.43  3053.00  3085.35  3121.09  3149.47  3193.74  3259.77  3324.16  3376.31  3389.52  3401.74  3411.90  3431.05  3444.74  3458.62  3473.57  3495.12  3464.05  3414.77  3360.46  3305.34  3264.89  3258.38  3244.06  3226.23  3205.26  3181.27  3159.47  3124.43  3095.03  3075.22  3049.36  3035.05
2973.05  2965.26  2956.32  2940.05  2913.16  2903.67  2908.62  2906.83  2901.98  2900.99  2904.77  2911.06  2917.79  2925.10  2932.76  2942.08  2951.22  2963.51  2978.62  2995.28  3011.27  3025.89  3040.01  3047.97  3053.38  3060.42  3068.86  3075.78  3081.58  3088.08  3095.13  3102.67  3111.31  3120.33  3126.11  3130.71  3135.18  3140.60  3155.73  3180.41  3210.19  3253.10  3316.64  3391.14  3482.71  3516.95  3530.92  3540.34  3540.18  3535.09  3525.52  3513.63  3500.23  3486.05  3468.97  3451.14  3437.18  3420.81  3401.41  3385.15  3371.30  3355.41  3339.45  3325.74  3311.27  3299.43  3290.28  3279.72  3257.30  3236.48  3215.49  3195.85  3178.97  3166.57  3148.24  3127.07  3104.50  3083.44  3065.39  3051.15  3035.99  3021.98  3010.76  2999.26  2986.74  2978.70  2972.16  2964.69  2957.66  2948.61  2941.69  2931.32  2922.78  2915.20  2909.39  2899.57  2890.06  2881.62  2873.92  2866.15  2859.44  2855.39  2850.80  2848.98  2846.96  2844.34  2841.76  2838.52  2834.76  2831.52  2828.90  2824.93  2821.09  2817.37  2813.64  2810.76  2807.91  2804.76  2801.79  2798.91  2796.01  2792.78  2789.63  2787.30  2783.56  2780.71  2777.53  2775.25  2773.60  2771.24  2769.76  2768.86  2766.94  2764.19  2761.14  2757.07  2752.62  2749.69  2743.58  2732.18  2734.36  2740.36  2724.17  2733.66  2738.63  2751.23  2762.44  2766.74  2775.11  2781.65  2785.26  2789.61  2795.09  2800.74  2804.91  2807.90  2808.33  2806.81  2806.20  2809.49  2816.24  2834.57  2874.32  2896.00  2918.84  2924.02  2925.35  2923.11  2924.34  2926.03  2930.21  2933.65  2939.11  2946.06  2956.32  2968.36  2989.06  3015.68  3044.13  3075.88  3125.96  3170.20  3233.24  3290.40  3328.53  3344.15  3379.60  3414.10  3428.44  3442.91  3456.84  3469.77  3480.97  3497.24  3499.32  3454.71  3423.60  3338.24  3297.70  3278.76  3260.20  3233.91  3206.10  3175.63  3147.27  3120.78  3094.39  3069.75  3044.22  3029.47
2933.03  2924.37  2916.10  2900.26  2892.30  2894.43  2900.84  2898.65  2895.51  2895.76  2898.35  2903.45  2910.64  2917.14  2925.26  2935.38  2945.75  2958.63  2974.40  2993.34  3012.67  3030.99  3047.50  3056.81  3059.45  3064.87  3074.30  3082.13  3087.43  3093.24  3099.81  3106.36  3113.08  3120.26  3125.11  3129.51  3133.93  3138.51  3151.40  3172.85  3204.80  3254.59  3316.45  3394.72  3469.10  3498.93  3520.03  3531.47  3533.55  3528.33  3519.50  3508.97  3496.97  3486.05  3470.83  3454.30  3439.54  3422.01  3402.39  3383.31  3366.46  3350.82  3334.49  3321.90  3307.69  3295.88  3286.91  3268.99  3246.65  3230.43  3214.20  3192.22  3174.43  3161.37  3146.98  3132.45  3108.00  3085.58  3068.81  3055.55  3043.29  3033.07  3023.95  3011.23  2999.18  2991.45  2985.42  2978.82  2970.79  2961.31  2951.12  2940.14  2929.89  2922.05  2914.79  2904.92  2893.51  2884.00  2875.29  2867.66  2863.00  2858.40  2854.27  2852.54  2850.51  2848.87  2845.06  2842.47  2839.69  2836.12  2831.20  2827.78  2824.82  2820.51  2815.77  2812.82  2810.64  2807.42  2805.03  2802.37  2799.15  2796.13  2792.80  2789.17  2784.98  2781.42  2777.32  2774.15  2771.33  2769.89  2768.00  2766.07  2764.10  2762.07  2758.99  2755.47  2751.01  2746.43  2738.97  2726.42  2718.56  2724.09  2729.18  2735.52  2740.33  2750.00  2758.31  2765.44  2771.85  2774.34  2777.23  2782.13  2786.52  2792.22  2798.36  2802.97  2804.18  2804.19  2806.18  2807.79  2817.30  2829.76  2867.23  2889.19  2905.90  2915.84  2918.11  2918.92  2919.20  2920.73  2925.42  2931.20  2936.91  2942.77  2954.03  2967.42  2988.68  3012.55  3047.97  3111.97  3173.50  3233.76  3277.27  3256.61  3271.87  3313.11  3398.43  3423.38  3439.18  3458.28  3471.42  3480.42  3487.86  3496.58  3514.25  3505.72  3461.53  3380.74  3353.23  3322.11  3322.57  3274.32  3238.07  3183.72  3147.22  3115.53  3080.39  3057.80  3037.48  3020.28
2890.33  2877.28  2881.36  2886.18  2882.53  2884.88  2887.63  2889.76  2888.90  2891.91  2895.11  2900.07  2906.95  2914.09  2921.85  2932.45  2944.57  2957.85  2974.13  2994.78  3018.96  3041.68  3059.27  3068.78  3072.25  3077.05  3084.13  3090.51  3094.62  3099.19  3103.78  3107.80  3113.74  3119.67  3124.26  3129.00  3133.83  3138.69  3150.26  3167.74  3203.15  3263.87  3322.25  3385.51  3445.87  3491.05  3517.45  3527.81  3530.28  3525.13  3515.27  3506.46  3496.41  3486.14  3471.21  3454.89  3439.98  3422.28  3403.55  3384.88  3360.57  3342.79  3329.28  3316.11  3302.32  3288.32  3272.69  3249.24  3230.65  3219.90  3207.93  3189.30  3171.17  3158.49  3144.21  3128.78  3108.39  3087.67  3073.22  3062.91  3052.80  3045.18  3035.49  3022.99  3012.28  3003.18  2996.11  2989.44  2978.77  2968.95  2957.05  2946.98  2936.33  2928.38  2919.02  2908.54  2896.66  2887.09  2877.34  2870.49  2866.43  2863.09  2858.36  2856.71  2854.30  2850.37  2848.46  2847.81  2845.85  2840.00  2833.91  2829.00  2825.04  2821.73  2818.23  2815.40  2812.56  2809.57  2807.39  2805.01  2802.24  2799.45  2796.42  2792.86  2788.81  2784.13  2779.39  2774.87  2770.39  2766.95  2765.35  2762.98  2761.09  2758.95  2756.65  2752.32  2747.20  2741.22  2734.34  2728.41  2718.13  2727.56  2734.52  2737.75  2741.96  2748.32  2756.05  2762.34  2766.45  2767.55  2770.99  2775.75  2781.40  2787.76  2793.43  2795.86  2799.28  2800.86  2803.94  2808.47  2817.68  2832.32  2866.33  2887.59  2901.75  2907.94  2911.15  2913.82  2915.08  2918.15  2925.72  2934.00  2938.09  2944.62  2957.52  2973.47  2992.34  3008.91  3053.74  3138.39  3175.97  3201.22  3183.94  3195.17  3224.71  3275.36  3335.76  3381.65  3445.78  3471.12  3487.88  3497.62  3507.85  3518.28  3527.99  3515.11  3483.86  3444.06  3386.82  3379.99  3354.51  3320.65  3293.89  3236.68  3189.10  3162.43  3078.38  3043.60  3024.85  3006.25
2844.53  2854.80  2864.28  2869.06  2868.06  2871.80  2876.47  2881.34  2884.52  2889.36  2895.57  2901.72  2909.54  2917.99  2928.72  2938.39  2952.55  2968.62  2985.18  3011.32  3043.52  3067.18  3083.13  3088.99  3091.15  3092.15  3095.74  3101.13  3103.37  3105.78  3108.65  3111.99  3115.05  3119.40  3124.97  3130.28  3135.54  3141.74  3153.59  3172.84  3202.47  3256.85  3317.83  3376.71  3438.70  3486.41  3517.08  3527.41  3527.73  3522.62  3513.37  3505.68  3497.95  3488.28  3472.13  3455.52  3441.47  3422.69  3404.79  3381.34  3359.57  3341.63  3325.14  3309.25  3293.60  3275.47  3252.99  3227.97  3215.35  3204.44  3195.27  3183.20  3166.30  3154.37  3141.26  3125.26  3107.75  3090.59  3080.20  3070.83  3062.06  3053.30  3044.14  3028.82  3016.67  3007.48  2999.16  2989.94  2981.91  2972.88  2959.83  2950.56  2940.62  2930.64  2921.27  2910.36  2897.36  2887.46  2877.03  2869.99  2865.40  2861.74  2856.03  2853.87  2852.25  2851.60  2851.62  2849.45  2842.76  2834.99  2828.84  2823.57  2820.47  2818.07  2816.35  2814.91  2812.79  2810.59  2808.97  2806.60  2804.61  2802.27  2799.49  2796.40  2792.38  2788.09  2782.53  2776.57  2771.36  2765.82  2762.25  2759.55  2757.22  2754.47  2751.39  2748.31  2743.18  2737.19  2729.90  2726.33  2722.64  2729.77  2734.07  2736.76  2741.26  2748.43  2754.20  2757.44  2759.82  2762.37  2766.70  2772.33  2778.50  2783.30  2787.74  2790.32  2792.50  2796.94  2800.69  2806.28  2818.30  2837.72  2863.18  2881.04  2893.31  2898.81  2900.70  2902.71  2906.64  2913.93  2924.73  2935.37  2943.79  2951.72  2962.70  2979.93  2998.99  3018.14  3051.13  3106.96  3101.66  3137.31  3157.61  3186.62  3212.51  3238.78  3296.45  3380.16  3472.92  3477.70  3471.15  3489.15  3489.88  3493.67  3484.60  3463.53  3456.58  3449.69  3420.53  3370.97  3325.95  3298.64  3267.95  3233.79  3190.18  3158.26  3097.46  3033.59  3008.00  2992.45
2839.44  2844.20  2847.65  2851.53  2856.57  2862.36  2869.34  2876.42  2883.79  2890.97  2897.94  2905.73  2914.72  2924.42  2937.19  2951.11  2968.03  2988.15  3009.65  3042.43  3084.36  3127.60  3136.94  3130.30  3117.82  3113.67  3114.64  3115.99  3113.53  3113.87  3114.95  3116.77  3119.52  3122.76  3127.25  3132.93  3139.10  3148.68  3159.57  3182.71  3210.26  3259.67  3320.60  3382.46  3437.18  3492.63  3521.95  3530.11  3530.11  3523.83  3513.18  3505.08  3498.39  3487.74  3471.99  3456.18  3440.22  3422.36  3401.73  3375.53  3358.85  3340.89  3321.08  3300.64  3281.40  3257.72  3240.39  3219.91  3206.18  3194.41  3184.64  3173.45  3159.47  3145.66  3132.53  3118.36  3104.94  3094.49  3085.01  3076.28  3067.35  3056.80  3045.29  3031.62  3021.77  3012.50  3000.16  2990.24  2980.31  2972.72  2962.08  2950.53  2940.59  2933.73  2922.73  2910.95  2897.53  2885.63  2875.01  2867.38  2861.05  2857.23  2857.49  2857.72  2858.43  2856.86  2852.34  2846.30  2837.74  2829.05  2823.02  2818.45  2816.15  2813.58  2811.79  2810.80  2808.46  2807.40  2806.97  2806.46  2805.27  2803.87  2801.31  2798.48  2794.86  2790.25  2784.71  2778.56  2772.15  2765.98  2759.97  2755.66  2752.79  2750.63  2747.15  2743.25  2737.89  2732.59  2728.22  2725.70  2727.54  2730.35  2731.97  2736.12  2740.50  2746.80  2750.10  2753.09  2756.88  2758.96  2764.71  2769.59  2774.21  2777.55  2781.93  2784.23  2788.11  2793.17  2800.58  2810.68  2822.86  2839.46  2857.91  2872.80  2881.93  2885.76  2888.51  2890.99  2899.07  2914.13  2930.74  2941.91  2950.47  2958.88  2969.60  2984.53  3003.58  3025.81  3049.45  3074.20  3097.60  3125.41  3150.01  3174.90  3203.60  3235.08  3315.68  3372.14  3436.01  3405.03  3423.45  3448.59  3441.50  3444.11  3427.53  3414.77  3403.18  3385.69  3389.60  3369.54  3317.40  3262.45  3221.55  3186.80  3142.00  3104.12  3073.19  3035.87  2999.25  2982.38
2829.77  2833.93  2839.45  2846.19  2853.22  2860.17  2867.87  2875.92  2884.24  2892.47  2900.46  2909.52  2918.99  2931.46  2945.20  2964.10  2986.71  3013.68  3038.29  3066.83  3114.72  3165.63  3193.37  3187.30  3170.64  3158.93  3143.61  3135.69  3127.46  3124.70  3124.33  3125.18  3127.70  3130.93  3132.99  3136.44  3144.20  3157.17  3171.29  3191.95  3229.30  3280.98  3332.28  3387.52  3446.31  3504.34  3532.97  3536.88  3534.97  3528.23  3513.72  3504.58  3494.72  3482.53  3468.78  3451.73  3432.69  3414.29  3401.14  3376.99  3353.93  3334.88  3316.01  3292.32  3266.34  3244.57  3227.35  3213.93  3200.78  3189.65  3178.85  3165.70  3152.37  3136.26  3124.12  3115.57  3105.76  3096.15  3087.23  3079.35  3071.20  3060.18  3047.51  3034.86  3024.38  3013.09  3000.78  2992.12  2983.32  2973.45  2962.86  2952.39  2951.84  2945.63  2930.43  2917.38  2902.66  2888.58  2875.76  2866.60  2866.07  2865.72  2863.36  2863.89  2864.15  2861.66  2857.51  2851.32  2843.88  2835.07  2826.32  2820.57  2818.30  2816.33  2813.66  2811.14  2809.45  2807.00  2805.24  2803.59  2803.42  2802.18  2801.00  2798.74  2794.93  2790.66  2785.03  2778.90  2771.99  2765.51  2758.56  2752.39  2747.49  2745.26  2741.46  2737.50  2733.63  2729.45  2726.49  2726.64  2730.64  2729.45  2730.35  2734.40  2738.10  2743.44  2747.98  2750.71  2754.55  2758.64  2762.48  2765.94  2769.03  2774.09  2776.75  2780.98  2786.45  2792.59  2800.70  2813.46  2824.38  2837.49  2852.89  2865.47  2874.18  2879.06  2885.08  2889.32  2898.51  2913.48  2935.97  2948.80  2958.64  2967.76  2975.95  2987.24  3003.51  3032.50  3061.43  3085.18  3104.92  3125.25  3149.73  3176.74  3209.63  3251.25  3303.55  3365.11  3398.78  3357.14  3347.79  3389.58  3383.55  3390.87  3373.97  3375.77  3352.00  3335.04  3332.40  3360.98  3321.31  3253.50  3198.32  3164.12  3128.05  3093.01  3062.05  3027.90  2993.97  2972.69
2827.89  2834.57  2840.41  2847.17  2853.85  2860.88  2868.79  2876.65  2885.62  2894.78  2905.16  2913.55  2924.32  2938.62  2956.46  2978.51  3006.00  3036.00  3067.05  3101.49  3143.37  3186.08  3232.45  3234.49  3226.20  3219.59  3204.56  3165.08  3145.24  3140.56  3139.89  3139.23  3139.07  3141.63  3142.29  3145.87  3155.35  3168.40  3186.74  3211.34  3259.40  3310.69  3356.63  3406.66  3455.45  3517.69  3553.44  3552.11  3546.19  3533.82  3516.89  3505.66  3492.05  3478.51  3465.76  3448.02  3425.48  3405.25  3388.76  3369.76  3347.44  3326.94  3311.96  3285.07  3261.13  3235.80  3220.86  3205.91  3194.81  3185.23  3173.30  3160.51  3149.13  3135.90  3125.01  3118.09  3106.84  3097.01  3089.90  3083.59  3075.76  3063.97  3050.90  3037.47  3026.30  3017.05  3008.01  2999.72  2991.54  2981.17  2977.95  2973.93  2972.44  2972.42  2963.73  2945.80  2929.08  2904.95  2887.69  2882.07  2878.38  2875.70  2871.59  2870.94  2871.34  2871.53  2869.53  2865.24  2858.53  2846.28  2835.60  2828.77  2823.81  2819.93  2816.46  2813.42  2811.62  2809.52  2807.00  2805.32  2802.83  2800.32  2797.59  2795.18  2791.97  2788.63  2784.53  2778.25  2770.60  2763.09  2756.78  2750.52  2743.14  2738.59  2736.53  2732.48  2728.41  2725.27  2725.24  2727.19  2729.83  2727.00  2728.51  2732.66  2737.38  2742.62  2746.82  2750.11  2753.51  2756.07  2758.25  2760.88  2765.32  2769.95  2775.72  2781.21  2788.52  2795.37  2802.22  2813.93  2825.22  2838.54  2849.38  2860.62  2873.49  2879.93  2888.60  2896.07  2903.48  2915.72  2939.05  2956.63  2966.01  2976.09  2983.86  2995.99  3016.01  3039.53  3067.39  3089.22  3108.24  3131.40  3158.74  3186.78  3227.41  3279.49  3343.68  3353.86  3354.14  3318.76  3291.65  3296.01  3289.97  3336.79  3315.27  3334.73  3302.66  3293.63  3289.85  3302.79  3294.00  3241.32  3193.22  3158.14  3125.78  3092.67  3058.80  3025.60  2994.61  2963.32
2830.55  2837.75  2843.81  2850.14  2856.27  2863.27  2871.35  2880.02  2890.33  2900.16  2913.71  2924.50  2937.39  2955.83  2975.10  2996.09  3025.05  3060.99  3094.76  3127.84  3172.74  3225.45  3265.89  3276.92  3287.12  3285.03  3268.05  3236.43  3190.22  3163.93  3162.19  3163.93  3158.45  3159.91  3160.14  3162.16  3171.16  3186.40  3211.99  3250.64  3299.25  3345.36  3389.52  3429.91  3481.51  3548.48  3583.64  3569.97  3555.93  3539.17  3520.97  3506.24  3488.43  3471.38  3455.49  3436.26  3415.03  3397.23  3379.42  3363.45  3341.77  3321.47  3304.91  3283.51  3261.26  3241.59  3222.14  3203.95  3190.70  3181.38  3168.90  3157.22  3148.99  3137.58  3127.83  3121.24  3110.24  3101.09  3094.73  3088.71  3081.18  3067.90  3056.25  3046.95  3040.19  3030.03  3019.77  3010.75  3008.45  3000.74  2996.62  2998.71  3005.40  3028.94  3026.27  3010.52  2986.01  2924.56  2902.32  2894.32  2891.61  2888.71  2884.68  2882.29  2883.67  2885.11  2884.04  2879.57  2869.46  2855.92  2843.98  2834.30  2826.72  2819.53  2813.76  2809.78  2807.42  2806.02  2804.82  2803.11  2801.18  2798.49  2794.69  2789.78  2785.57  2781.91  2779.37  2774.79  2768.14  2759.88  2753.23  2746.80  2740.48  2734.01  2729.72  2727.67  2724.02  2721.70  2722.06  2726.77  2726.16  2722.27  2725.62  2731.73  2738.34  2744.65  2747.06  2749.83  2751.49  2753.43  2755.33  2758.56  2764.56  2771.51  2777.54  2783.81  2789.13  2795.78  2805.20  2815.66  2826.78  2838.97  2847.77  2858.63  2873.08  2886.11  2899.47  2911.78  2921.60  2929.03  2947.74  2962.73  2971.85  2986.69  2993.03  3006.62  3026.86  3045.72  3070.10  3087.01  3106.32  3141.09  3183.18  3230.86  3269.53  3329.09  3315.44  3306.20  3275.12  3259.29  3245.52  3235.77  3243.10  3265.81  3269.79  3299.55  3291.27  3273.00  3258.39  3265.18  3241.38  3216.36  3197.95  3168.68  3135.67  3102.01  3071.77  3047.15  3014.09  2969.56
2832.53  2839.71  2847.37  2853.83  2860.62  2869.82  2877.89  2888.21  2900.43  2912.74  2928.00  2940.38  2955.89  2976.78  2999.97  3021.26  3049.28  3095.79  3131.20  3178.76  3223.26  3261.31  3297.82  3318.80  3333.21  3347.45  3339.23  3319.11  3282.84  3233.57  3211.49  3199.82  3185.13  3184.32  3186.40  3191.80  3211.09  3236.17  3272.19  3303.84  3342.80  3385.69  3428.19  3473.88  3532.50  3587.53  3574.30  3561.79  3549.39  3535.45  3521.37  3505.06  3480.32  3459.31  3441.85  3423.90  3405.81  3391.16  3376.65  3359.03  3339.88  3318.21  3301.36  3281.19  3262.73  3243.72  3222.58  3204.14  3186.82  3174.35  3162.09  3153.43  3148.83  3138.15  3129.91  3123.27  3112.48  3106.93  3098.01  3093.64  3085.86  3075.52  3070.23  3060.98  3052.70  3044.49  3038.60  3033.57  3029.80  3023.00  3027.27  3041.39  3072.44  3084.80  3053.84  3006.40  2954.08  2929.48  2921.08  2912.80  2906.67  2902.76  2897.89  2896.76  2898.07  2901.42  2901.51  2896.40  2880.68  2866.40  2852.90  2844.20  2834.23  2821.26  2812.11  2806.41  2803.18  2800.71  2797.86  2796.03  2793.69  2790.78  2787.94  2784.03  2779.21  2775.19  2770.63  2766.54  2761.21  2755.70  2749.14  2742.51  2735.12  2728.01  2722.70  2721.17  2719.17  2718.28  2719.00  2723.97  2721.17  2718.41  2725.61  2732.70  2740.57  2746.34  2746.82  2747.74  2749.68  2752.59  2758.53  2763.22  2769.10  2774.12  2779.86  2786.61  2793.26  2800.23  2810.22  2817.96  2830.17  2841.02  2851.61  2866.74  2885.62  2905.31  2921.07  2933.50  2944.82  2951.44  2968.14  2982.39  2995.70  3004.06  3004.36  3018.64  3032.57  3046.10  3065.93  3082.64  3107.52  3164.91  3231.96  3265.35  3293.96  3279.45  3255.96  3227.40  3209.94  3201.99  3200.65  3200.88  3214.30  3223.91  3239.11  3273.32  3274.35  3249.06  3230.16  3214.10  3199.72  3180.19  3167.85  3159.83  3150.65  3109.07  3061.70  3041.01  3022.11  2991.53
2832.34  2838.86  2848.53  2858.38  2869.49  2880.52  2891.48  2903.12  2915.66  2931.68  2949.27  2963.89  2979.70  3000.20  3023.85  3056.72  3121.90  3166.97  3200.34  3240.18  3267.27  3299.73  3330.87  3354.12  3374.91  3395.37  3411.10  3399.37  3382.75  3345.90  3299.65  3271.78  3254.90  3247.60  3251.66  3266.88  3295.57  3329.01  3357.84  3377.38  3401.90  3435.10  3479.80  3553.84  3590.88  3590.50  3569.68  3558.31  3546.60  3534.09  3521.09  3503.24  3474.93  3452.95  3435.24  3416.67  3398.33  3383.99  3370.77  3354.36  3337.21  3320.26  3305.83  3286.36  3268.01  3247.02  3225.81  3204.49  3182.80  3167.91  3156.08  3150.85  3147.84  3141.78  3134.19  3122.05  3111.65  3109.70  3102.57  3095.79  3091.52  3091.06  3087.30  3076.64  3067.29  3065.26  3063.48  3057.77  3056.78  3060.67  3076.92  3099.24  3105.96  3062.14  3010.90  2982.37  2961.29  2947.35  2939.34  2927.44  2922.96  2918.46  2914.07  2912.93  2915.86  2920.40  2922.70  2914.77  2896.06  2879.22  2870.03  2864.47  2851.88  2837.62  2826.26  2817.47  2809.44  2801.60  2794.21  2789.02  2784.00  2780.13  2775.84  2773.34  2771.05  2767.53  2762.53  2758.45  2753.13  2749.09  2743.58  2736.70  2730.83  2723.03  2717.81  2715.49  2713.67  2713.30  2716.09  2720.81  2716.07  2715.57  2725.97  2736.77  2742.57  2745.47  2745.76  2748.88  2753.46  2758.23  2762.68  2769.26  2774.26  2779.04  2783.69  2789.66  2796.91  2806.56  2819.26  2825.57  2837.98  2850.28  2865.14  2888.03  2909.66  2928.41  2939.97  2951.56  2968.16  2984.32  3002.89  3016.24  3022.68  3026.69  3027.72  3033.97  3042.18  3053.56  3072.59  3089.65  3126.07  3189.30  3230.13  3192.39  3193.75  3204.55  3189.54  3168.84  3156.20  3168.61  3181.14  3185.30  3191.03  3198.99  3209.43  3256.59  3256.11  3226.20  3202.42  3188.87  3173.10  3155.90  3139.45  3131.40  3154.99  3105.25  3049.10  3006.60  3006.81  2983.70
2839.07  2849.47  2858.00  2871.82  2886.38  2900.47  2913.97  2926.06  2940.66  2956.93  2975.09  2992.95  3007.54  3027.49  3057.99  3120.17  3186.78  3219.90  3253.20  3280.03  3305.00  3334.32  3366.96  3392.48  3416.45  3441.72  3466.25  3466.53  3457.15  3419.00  3401.07  3370.38  3348.04  3333.47  3357.82  3387.55  3412.20  3428.99  3455.01  3477.82  3494.99  3521.93  3568.03  3643.36  3626.49  3602.10  3580.36  3563.57  3548.04  3534.93  3520.34  3499.24  3476.56  3451.98  3435.06  3414.42  3391.93  3373.56  3358.90  3347.72  3332.29  3322.16  3312.80  3295.04  3277.90  3258.87  3232.64  3207.80  3180.98  3164.62  3154.97  3151.11  3147.72  3143.63  3136.26  3125.70  3113.75  3111.22  3106.38  3101.24  3102.91  3106.35  3099.69  3091.96  3087.47  3083.70  3083.30  3087.59  3103.17  3129.59  3145.95  3139.58  3093.32  3058.41  3025.13  2994.03  2973.43  2962.67  2952.34  2942.66  2938.93  2936.66  2933.02  2930.69  2932.27  2936.73  2942.00  2930.63  2907.80  2904.95  2899.36  2895.18  2884.93  2865.91  2850.24  2836.34  2823.99  2811.81  2798.58  2788.77  2777.49  2770.41  2764.62  2761.72  2759.24  2757.17  2754.64  2749.41  2745.05  2740.52  2735.38  2729.93  2726.09  2718.83  2712.52  2709.25  2709.12  2708.92  2710.99  2715.64  2710.14  2714.09  2726.20  2737.62  2740.83  2743.93  2747.53  2752.72  2757.41  2760.53  2765.70  2771.26  2776.48  2783.14  2788.91  2794.23  2807.86  2820.69  2835.42  2845.65  2855.51  2871.60  2888.77  2911.56  2934.38  2954.16  2971.07  2972.36  2999.72  3018.05  3034.39  3040.22  3046.30  3048.40  3048.40  3053.57  3061.72  3070.35  3081.51  3113.41  3163.14  3172.24  3126.92  3120.97  3143.55  3158.34  3150.68  3138.39  3133.98  3147.15  3158.76  3168.23  3172.57  3178.02  3185.72  3234.10  3238.14  3208.05  3185.90  3173.08  3157.36  3139.74  3120.24  3100.13  3097.82  3084.78  3020.22  2980.75  2952.73  2920.88
2858.64  2874.40  2887.71  2898.79  2912.64  2929.32  2942.38  2955.85  2973.59  2991.72  3009.63  3027.75  3044.74  3073.93  3125.68  3189.07  3243.78  3269.90  3303.67  3325.81  3346.74  3373.06  3405.61  3433.49  3459.73  3487.55  3514.11  3530.13  3522.67  3485.12  3485.95  3477.86  3459.98  3436.67  3451.99  3472.53  3491.07  3506.91  3539.50  3578.79  3618.68  3653.57  3685.85  3700.61  3647.28  3617.64  3589.77  3566.01  3550.13  3533.82  3516.43  3495.88  3475.31  3455.10  3438.25  3413.78  3390.48  3371.08  3354.86  3344.77  3331.72  3323.57  3315.57  3302.12  3287.49  3268.63  3244.14  3220.63  3193.80  3168.57  3157.39  3152.04  3149.26  3144.05  3137.15  3130.48  3120.04  3114.97  3114.05  3113.33  3116.19  3116.51  3115.40  3112.70  3109.28  3103.57  3102.64  3120.74  3160.86  3184.79  3182.82  3152.73  3123.39  3086.77  3049.57  3024.28  3006.72  2983.38  2973.48  2967.07  2960.60  2956.92  2953.34  2949.68  2949.94  2953.40  2957.89  2945.08  2939.56  2935.26  2931.75  2926.47  2916.22  2893.57  2877.38  2864.27  2846.62  2832.06  2815.31  2799.28  2783.47  2769.24  2758.43  2752.69  2749.15  2746.77  2744.38  2739.61  2734.61  2729.95  2726.77  2724.78  2720.82  2714.88  2708.06  2703.45  2702.99  2703.70  2705.99  2709.68  2704.02  2712.47  2724.18  2733.94  2740.10  2745.53  2749.28  2752.31  2756.19  2762.39  2769.36  2774.17  2779.98  2788.07  2800.26  2806.65  2823.71  2838.11  2854.50  2869.91  2884.71  2900.01  2918.25  2945.65  2976.22  2991.90  3000.83  3016.40  3030.34  3055.39  3072.16  3068.68  3072.32  3071.00  3074.08  3078.11  3081.86  3093.12  3108.72  3145.34  3121.28  3079.18  3079.57  3098.71  3123.05  3137.77  3138.61  3117.70  3089.94  3110.22  3134.17  3144.90  3150.28  3155.30  3166.18  3209.09  3219.12  3209.11  3182.52  3160.18  3147.00  3131.99  3110.98  3088.52  3057.85  3024.49  2999.82  2981.57  2958.55  2926.82
2897.62  2911.71  2925.57  2940.60  2960.18  2973.63  2983.15  3002.11  3026.53  3046.52  3071.25  3086.61  3114.98  3161.63  3220.51  3266.28  3299.34  3328.55  3351.78  3371.32  3392.86  3419.65  3445.71  3477.93  3508.70  3540.38  3566.65  3585.80  3592.22  3571.87  3570.11  3568.62  3568.13  3531.64  3544.00  3557.48  3570.57  3584.13  3632.33  3721.32  3765.79  3784.72  3798.02  3755.20  3697.69  3646.98  3611.20  3582.67  3561.34  3535.21  3510.50  3490.47  3475.05  3459.60  3442.09  3420.07  3398.09  3376.51  3358.85  3345.56  3333.85  3326.05  3316.95  3304.06  3292.25  3277.32  3260.05  3234.99  3211.54  3182.12  3166.22  3161.39  3157.93  3150.29  3142.66  3138.14  3130.22  3126.52  3126.44  3127.07  3128.70  3133.73  3136.99  3135.40  3130.18  3138.13  3150.86  3179.12  3204.22  3209.87  3186.85  3167.05  3144.59  3116.56  3085.71  3059.53  3036.50  3015.42  3006.11  2993.90  2982.35  2975.64  2972.97  2971.81  2969.70  2971.77  2975.99  2975.04  2974.47  2968.84  2964.06  2962.79  2950.06  2927.54  2914.37  2896.32  2879.01  2861.23  2844.69  2821.60  2798.28  2777.53  2758.42  2744.98  2740.05  2737.32  2733.43  2728.01  2722.61  2717.37  2717.34  2717.78  2714.99  2710.29  2704.38  2697.91  2697.23  2697.30  2699.91  2702.61  2697.55  2708.50  2719.37  2727.45  2738.78  2744.15  2745.26  2748.49  2753.71  2762.99  2772.25  2780.64  2788.68  2800.67  2816.70  2832.99  2853.36  2859.40  2875.11  2893.69  2911.30  2928.56  2940.81  2983.53  3026.93  3045.75  3062.02  3076.47  3093.00  3099.11  3096.80  3094.22  3097.12  3093.52  3100.81  3113.87  3126.94  3139.01  3151.90  3089.42  3051.06  3041.21  3050.20  3076.65  3112.28  3115.86  3117.03  3098.35  3057.82  3062.30  3094.99  3108.57  3115.55  3126.76  3139.69  3183.45  3200.15  3195.07  3183.02  3152.24  3137.07  3125.58  3103.49  3085.53  3055.13  3025.45  3002.47  2982.96  2964.20  2941.05
2950.90  2966.82  2988.20  3009.10  3033.19  3051.11  3064.07  3091.32  3111.30  3130.10  3147.86  3163.04  3185.52  3237.10  3289.65  3330.86  3358.65  3382.42  3404.29  3429.44  3447.59  3471.84  3495.74  3530.54  3561.34  3590.62  3616.80  3647.17  3665.90  3669.94  3664.46  3678.45  3665.15  3657.86  3676.22  3705.67  3726.68  3746.54  3793.66  3816.24  3843.63  3857.77  3817.93  3755.34  3719.39  3685.60  3651.26  3619.08  3586.49  3560.21  3524.38  3499.43  3484.99  3469.64  3449.60  3428.84  3408.82  3381.43  3358.39  3347.26  3337.76  3328.92  3316.63  3305.71  3296.32  3284.28  3271.05  3247.55  3224.84  3203.22  3190.52  3182.71  3173.94  3166.07  3153.76  3146.22  3140.56  3136.60  3139.18  3141.63  3145.66  3154.48  3153.43  3149.73  3153.72  3171.24  3210.43  3236.44  3230.13  3212.39  3191.96  3170.54  3149.80  3125.89  3100.95  3077.31  3057.15  3037.71  3023.88  3012.41  2998.24  2989.74  2988.90  2988.16  2983.82  2989.70  2990.61  3008.21  3021.03  3007.46  3000.64  2998.40  2985.23  2969.01  2950.61  2930.32  2914.27  2902.43  2877.38  2838.43  2812.70  2786.97  2761.89  2740.15  2730.07  2727.62  2723.79  2717.47  2710.91  2707.36  2708.31  2707.88  2707.54  2704.12  2698.41  2691.52  2689.08  2690.56  2691.42  2693.88  2687.98  2698.14  2709.46  2713.55  2733.17  2737.72  2741.22  2743.16  2753.35  2763.89  2776.82  2789.93  2802.68  2818.52  2836.83  2851.75  2875.87  2895.66  2892.29  2913.83  2933.37  2953.65  2977.23  3029.42  3090.53  3118.68  3127.99  3135.09  3136.97  3132.80  3126.96  3127.26  3121.58  3122.49  3139.34  3162.01  3175.57  3176.75  3094.65  3022.99  3016.20  3014.71  3026.43  3046.88  3096.02  3084.86  3074.84  3042.90  3028.92  3029.27  3047.12  3061.36  3073.17  3089.97  3114.59  3142.12  3175.55  3173.22  3165.60  3155.01  3132.82  3118.77  3099.25  3080.65  3060.18  3036.07  3013.18  2987.15  2968.43  2939.42
3022.73  3041.17  3062.21  3084.79  3115.40  3128.86  3137.24  3181.16  3197.78  3206.64  3226.18  3239.93  3257.78  3290.07  3311.26  3334.78  3323.97  3349.94  3385.02  3400.05  3482.80  3527.89  3555.16  3584.30  3604.33  3617.22  3642.95  3683.18  3715.50  3754.68  3782.23  3804.86  3827.62  3831.83  3772.82  3740.56  3734.38  3743.80  3747.31  3750.64  3769.82  3817.25  3786.32  3721.91  3691.08  3666.09  3640.95  3614.74  3593.31  3568.73  3537.59  3512.71  3494.01  3476.84  3454.97  3432.08  3411.37  3388.62  3364.84  3351.70  3340.54  3331.62  3317.93  3307.20  3296.54  3285.15  3269.11  3255.63  3241.85  3227.60  3219.66  3210.99  3196.58  3186.24  3168.66  3156.80  3149.43  3148.31  3153.26  3158.98  3167.93  3172.43  3169.20  3170.74  3174.10  3216.52  3254.42  3251.92  3236.22  3216.70  3196.34  3175.03  3153.70  3132.56  3111.20  3087.91  3068.71  3051.35  3037.37  3023.52  3008.41  3002.90  3002.39  3003.07  2999.83  3002.95  3006.04  3057.48  3064.12  3049.38  3043.95  3048.18  3028.48  3007.83  2989.47  2978.16  2964.72  2945.97  2892.77  2847.11  2823.93  2796.17  2762.01  2735.69  2719.56  2714.50  2712.11  2708.29  2702.93  2700.28  2698.53  2698.06  2690.71  2683.84  2681.35  2683.14  2681.34  2682.17  2682.43  2683.67  2673.90  2680.23  2682.37  2695.91  2704.78  2725.38  2736.99  2755.97  2770.39  2784.54  2798.53  2812.21  2824.66  2841.88  2863.84  2881.84  2904.61  2955.51  2933.78  2944.98  2957.66  2978.11  3018.08  3068.01  3122.03  3176.53  3189.19  3197.63  3184.85  3168.13  3158.07  3156.10  3153.53  3169.80  3196.77  3208.01  3206.36  3102.37  3026.47  3005.64  2995.18  2994.24  3000.33  3024.92  3064.50  3047.90  3008.61  3002.21  3002.08  3002.05  3009.14  3027.85  3042.68  3069.65  3096.14  3118.53  3140.70  3141.63  3135.84  3129.95  3130.75  3124.04  3098.22  3083.02  3062.93  3040.46  3018.34  2997.43  2975.24  2937.63
3111.75  3124.21  3130.84  3154.20  3175.61  3193.73  3187.17  3167.92  3186.46  3205.78  3225.61  3260.02  3282.10  3277.18  3255.96  3273.90  3274.48  3311.23  3329.50  3390.09  3471.22  3570.71  3600.72  3604.49  3613.22  3620.73  3633.75  3641.93  3687.43  3729.03  3749.60  3772.77  3805.49  3814.55  3731.39  3684.18  3670.15  3676.30  3683.28  3694.29  3709.35  3788.32  3787.55  3732.21  3691.16  3661.86  3639.08  3617.52  3595.65  3572.17  3545.60  3520.15  3494.98  3476.36  3454.88  3433.91  3410.61  3391.44  3375.17  3359.19  3347.36  3336.55  3325.00  3314.39  3295.88  3285.46  3274.51  3268.24  3260.60  3254.48  3241.36  3230.82  3215.19  3193.89  3171.26  3159.74  3158.59  3162.20  3168.04  3178.87  3190.85  3191.40  3184.24  3185.11  3210.78  3258.55  3280.20  3259.98  3239.94  3219.59  3200.77  3181.38  3161.01  3139.32  3119.99  3097.47  3077.80  3061.23  3046.75  3031.26  3019.22  3017.70  3024.16  3025.55  3021.28  3019.09  3021.16  3094.34  3116.65  3104.57  3099.96  3091.04  3063.44  3043.46  3027.08  2993.67  2961.55  2928.59  2882.39  2853.58  2829.47  2802.67  2767.09  2735.55  2715.77  2701.11  2699.95  2699.69  2696.14  2691.43  2688.85  2685.39  2680.17  2680.37  2677.82  2673.85  2669.16  2671.62  2671.72  2671.90  2663.02  2661.76  2667.44  2677.39  2684.22  2718.87  2747.48  2773.21  2794.73  2812.53  2826.12  2842.17  2854.71  2870.67  2893.87  2913.11  2925.68  2967.53  3012.10  2992.05  3011.22  3026.72  3058.53  3101.09  3142.79  3194.32  3237.26  3248.01  3212.29  3193.64  3181.79  3182.81  3188.36  3232.28  3251.53  3252.82  3163.89  3059.20  3016.12  2993.16  2986.63  2978.11  2977.26  2989.96  3034.50  3014.10  2982.45  2976.20  2976.96  2977.57  2980.07  2994.20  3021.08  3049.09  3071.25  3084.34  3098.83  3089.03  3080.41  3094.28  3127.52  3159.62  3135.27  3108.48  3087.58  3057.88  3037.05  3019.67  2987.56  2946.73
3169.45  3192.01  3201.42  3219.75  3212.30  3184.12  3130.59  3108.97  3124.43  3141.15  3175.73  3214.05  3236.47  3224.02  3206.78  3224.59  3237.65  3266.12  3316.95  3396.48  3473.69  3535.01  3560.35  3552.03  3565.71  3571.92  3578.71  3591.53  3635.78  3674.24  3705.93  3738.11  3763.01  3764.31  3682.82  3638.75  3616.22  3618.80  3628.35  3640.78  3661.74  3719.27  3759.82  3765.90  3722.68  3674.98  3647.94  3631.77  3612.11  3594.27  3572.30  3529.17  3493.00  3480.97  3463.67  3445.75  3424.90  3409.87  3395.35  3373.95  3362.42  3352.90  3353.47  3351.99  3335.12  3315.74  3300.16  3290.48  3283.03  3273.07  3260.93  3239.78  3218.09  3204.57  3192.36  3178.41  3170.55  3175.73  3183.20  3191.26  3198.47  3206.19  3204.71  3201.53  3247.03  3296.25  3290.84  3265.52  3243.39  3226.02  3208.29  3189.84  3171.77  3151.32  3131.40  3111.73  3091.83  3074.23  3057.11  3042.26  3035.68  3039.01  3047.09  3045.49  3043.49  3044.27  3060.91  3128.55  3163.03  3161.73  3150.30  3126.54  3098.36  3074.24  3019.65  2953.52  2927.74  2906.25  2878.80  2854.03  2833.13  2810.02  2783.23  2750.64  2723.19  2699.12  2688.83  2690.22  2687.62  2682.47  2677.07  2669.50  2667.19  2664.84  2665.72  2663.32  2660.19  2660.30  2660.99  2659.83  2650.75  2652.02  2653.85  2658.95  2664.73  2712.59  2740.63  2766.43  2801.96  2835.75  2858.16  2873.73  2895.99  2930.11  2960.57  2979.31  2983.74  3000.59  3029.89  3057.46  3078.84  3093.58  3095.23  3131.33  3169.11  3223.88  3279.01  3285.22  3233.17  3218.49  3211.14  3215.71  3222.49  3276.88  3231.78  3193.51  3110.82  3041.95  3004.75  2983.59  2975.21  2960.38  2953.57  2957.93  2993.81  3002.20  2966.12  2954.57  2954.32  2953.72  2955.81  2956.70  2998.65  3012.14  3019.72  3023.42  3027.82  3034.26  3057.55  3085.28  3122.48  3172.08  3188.50  3155.80  3139.98  3098.95  3083.84  3049.99  2982.52  2913.37
3141.50  3159.30  3178.29  3203.49  3172.11  3102.41  3065.61  3064.39  3071.38  3080.43  3112.32  3163.68  3186.04  3168.86  3161.82  3173.12  3201.50  3266.15  3331.55  3388.69  3447.04  3492.41  3504.76  3494.33  3493.62  3517.20  3522.42  3548.03  3589.93  3642.32  3694.35  3719.14  3725.13  3704.66  3648.41  3599.73  3582.62  3577.82  3585.31  3596.28  3615.32  3671.49  3712.69  3774.64  3769.36  3741.59  3688.20  3652.23  3634.21  3619.93  3611.10  3572.29  3526.99  3501.22  3480.91  3467.05  3452.65  3449.41  3445.75  3437.59  3419.94  3404.23  3396.86  3376.09  3355.49  3335.37  3317.85  3311.19  3306.30  3292.78  3271.56  3247.01  3234.51  3233.91  3229.44  3213.96  3198.47  3196.91  3202.44  3212.36  3222.08  3221.53  3229.58  3259.20  3299.63  3310.07  3282.06  3265.92  3246.91  3232.02  3217.53  3199.27  3184.10  3160.97  3136.85  3117.77  3101.14  3085.18  3067.80  3056.91  3054.79  3060.53  3064.95  3062.95  3061.94  3063.08  3091.97  3144.34  3194.95  3199.07  3160.25  3128.67  3097.49  3035.50  2982.49  2945.61  2921.20  2898.01  2875.36  2853.49  2829.93  2803.82  2780.74  2757.96  2736.14  2707.60  2681.80  2676.65  2676.73  2669.86  2658.76  2651.82  2654.17  2650.76  2649.81  2649.33  2648.80  2649.82  2648.96  2647.36  2639.06  2639.45  2639.93  2642.70  2645.56  2706.38  2733.18  2765.10  2807.24  2853.67  2902.20  2922.41  2948.80  2990.74  3030.92  3049.13  3057.93  3048.45  3055.84  3067.36  3090.20  3112.34  3136.98  3162.86  3187.45  3219.18  3276.12  3321.52  3280.22  3253.68  3235.51  3236.37  3244.16  3272.20  3216.93  3169.26  3072.15  3021.59  2994.36  2972.03  2961.98  2945.58  2938.60  2931.07  2935.18  2969.51  2956.88  2934.75  2932.78  2932.39  2931.60  2928.74  2955.74  2968.78  2968.89  2976.43  2995.09  3019.88  3049.52  3084.97  3127.11  3169.07  3211.13  3201.33  3150.35  3104.60  3062.48  3028.15  2952.41  2911.70
3094.58  3120.65  3140.13  3161.04  3127.80  3045.91  3028.81  3031.54  3035.96  3041.18  3050.79  3094.71  3119.79  3109.03  3110.01  3135.98  3183.34  3242.57  3318.20  3376.20  3430.45  3446.20  3458.70  3439.98  3436.57  3456.80  3480.32  3516.65  3557.37  3609.40  3670.40  3691.80  3693.80  3661.82  3609.41  3577.98  3570.53  3561.14  3557.78  3559.91  3570.46  3603.99  3672.48  3727.18  3755.34  3775.53  3759.87  3740.35  3700.43  3653.82  3628.38  3602.59  3575.65  3538.43  3524.86  3502.72  3512.25  3527.67  3525.53  3480.98  3446.24  3430.19  3404.72  3384.62  3371.13  3355.23  3343.94  3326.44  3318.05  3300.68  3283.37  3267.06  3260.90  3261.67  3251.23  3236.16  3228.87  3220.98  3225.95  3231.34  3240.42  3241.48  3256.84  3304.53  3339.65  3316.60  3280.25  3266.18  3253.62  3240.72  3226.32  3208.57  3191.34  3168.56  3146.87  3128.38  3115.05  3101.59  3088.13  3080.66  3079.63  3080.57  3081.31  3077.60  3079.23  3093.98  3128.51  3176.46  3231.22  3218.40  3160.70  3090.91  3049.65  3007.36  2978.09  2949.76  2924.07  2898.24  2873.72  2854.08  2827.51  2802.82  2778.76  2758.95  2738.85  2712.64  2676.73  2656.54  2653.93  2650.97  2639.77  2634.86  2638.21  2636.57  2638.22  2638.78  2637.80  2637.21  2638.69  2636.04  2630.38  2625.52  2629.97  2632.56  2643.88  2693.07  2726.24  2758.15  2807.56  2857.18  2922.69  2973.41  3012.78  3044.77  3100.49  3111.32  3123.09  3114.83  3102.81  3100.70  3116.34  3136.22  3157.78  3179.38  3205.47  3240.10  3302.36  3352.91  3330.52  3295.83  3265.25  3260.89  3254.79  3204.07  3119.14  3098.28  3032.62  2995.48  2974.91  2959.86  2949.23  2933.14  2920.09  2912.24  2904.10  2908.00  2924.47  2914.74  2913.95  2912.36  2909.37  2904.16  2913.76  2928.30  2940.77  2956.06  2980.21  3009.90  3048.42  3100.28  3138.82  3173.43  3208.03  3203.33  3137.78  3081.55  3041.32  2996.66  2955.51  2928.63
3041.27  3073.99  3096.38  3113.85  3064.96  3013.04  3000.52  3003.92  3007.95  3010.88  3013.34  3034.51  3060.42  3064.54  3076.78  3108.24  3158.88  3217.82  3292.03  3368.05  3389.47  3397.88  3404.08  3386.69  3393.04  3416.67  3452.06  3499.90  3549.09  3599.49  3641.13  3662.41  3666.28  3627.06  3585.20  3568.86  3562.78  3555.09  3548.16  3541.78  3545.05  3566.22  3626.89  3684.74  3724.23  3763.23  3798.22  3775.28  3765.14  3744.90  3710.15  3669.34  3636.11  3613.32  3597.54  3595.93  3605.22  3593.18  3535.74  3466.37  3447.53  3427.52  3407.45  3392.65  3383.18  3370.62  3362.52  3343.86  3320.59  3312.16  3304.52  3294.88  3285.42  3282.68  3263.72  3249.08  3243.48  3244.43  3255.39  3258.62  3257.97  3262.03  3291.11  3342.82  3358.26  3326.11  3287.05  3273.27  3261.74  3251.69  3232.66  3217.83  3199.41  3174.49  3157.32  3143.56  3130.66  3117.41  3108.60  3106.13  3102.74  3099.79  3091.80  3097.06  3099.21  3116.91  3156.81  3222.30  3267.92  3208.94  3127.99  3073.11  3036.11  3001.44  2971.34  2950.49  2933.06  2910.88  2877.64  2849.84  2824.70  2803.77  2781.89  2762.95  2735.71  2708.37  2674.40  2643.34  2635.65  2632.94  2628.39  2622.50  2620.74  2625.42  2627.21  2623.90  2626.25  2627.14  2629.72  2628.97  2623.46  2622.05  2622.71  2622.53  2639.89  2679.42  2715.69  2747.08  2785.24  2830.98  2880.40  2924.77  2965.02  3004.60  3055.96  3088.99  3121.95  3133.57  3161.11  3163.45  3173.60  3185.40  3195.61  3209.90  3223.87  3266.14  3308.32  3360.63  3369.73  3332.72  3296.84  3272.94  3231.04  3138.70  3074.99  3035.49  3008.45  2977.10  2960.25  2942.60  2931.06  2915.05  2898.12  2889.40  2885.96  2882.60  2886.66  2893.97  2893.90  2892.09  2888.52  2883.49  2887.73  2904.44  2922.83  2943.15  2969.62  3006.18  3033.85  3083.79  3104.12  3131.48  3176.18  3188.00  3120.48  3078.08  3033.42  2996.94  2971.88  2951.16
2992.78  3016.96  3045.09  3061.74  3036.80  2989.60  2977.74  2982.33  2988.26  2989.62  2989.17  3001.43  3016.35  3030.90  3046.71  3086.55  3150.29  3218.85  3284.20  3334.22  3343.70  3345.89  3343.40  3344.14  3360.39  3387.05  3432.57  3495.80  3542.72  3589.72  3628.89  3644.83  3627.23  3593.84  3559.99  3551.28  3547.51  3545.10  3542.35  3531.43  3527.82  3536.39  3573.68  3632.63  3700.54  3733.51  3818.43  3809.43  3788.91  3773.08  3757.07  3722.05  3708.34  3693.15  3684.17  3675.46  3609.92  3556.20  3501.62  3472.70  3456.20  3441.12  3419.70  3402.71  3393.46  3382.94  3371.63  3356.88  3337.97  3327.03  3317.13  3306.14  3296.39  3292.93  3282.32  3275.12  3262.86  3268.53  3274.47  3278.54  3278.03  3285.64  3327.90  3370.60  3348.80  3325.78  3302.53  3289.89  3277.72  3265.45  3243.47  3226.58  3210.66  3187.87  3173.09  3161.26  3149.12  3136.41  3129.12  3124.96  3123.45  3118.43  3115.65  3109.25  3120.11  3142.65  3204.34  3272.30  3240.10  3149.45  3099.08  3060.90  3021.69  2994.51  2967.74  2951.06  2927.68  2903.89  2875.36  2849.68  2824.41  2805.21  2779.89  2758.03  2730.81  2707.79  2679.58  2642.31  2620.38  2617.00  2614.08  2607.73  2606.47  2609.44  2601.71  2610.79  2613.78  2619.37  2621.47  2620.08  2614.67  2612.39  2614.22  2609.92  2624.49  2664.75  2699.64  2731.96  2762.91  2797.43  2828.83  2859.15  2900.32  2936.71  3004.82  3044.83  3062.78  3099.03  3168.75  3220.13  3246.86  3249.22  3258.86  3252.65  3272.06  3313.91  3355.62  3397.40  3408.75  3366.18  3302.47  3241.27  3173.23  3100.84  3058.76  3020.33  2996.36  2971.94  2948.35  2928.13  2911.47  2894.91  2881.83  2870.72  2869.81  2868.95  2868.60  2876.49  2873.50  2873.15  2870.30  2867.18  2873.45  2887.13  2911.13  2941.04  2975.92  3015.70  3034.03  3036.59  3050.78  3094.35  3145.75  3168.35  3121.28  3078.92  3044.57  3017.77  2995.92  2980.34
2943.73  2965.91  2993.50  3018.26  3012.20  2966.48  2956.64  2965.96  2969.03  2967.04  2970.07  2978.55  2987.45  2998.55  3033.73  3101.69  3165.01  3230.43  3281.88  3296.24  3297.01  3297.82  3295.07  3310.02  3332.32  3367.36  3416.41  3478.64  3539.02  3590.78  3609.57  3613.25  3575.38  3546.01  3538.23  3529.39  3529.10  3527.81  3529.45  3517.68  3513.68  3521.03  3548.43  3594.85  3657.12  3765.62  3779.24  3795.22  3810.43  3819.80  3803.52  3779.72  3777.74  3777.57  3748.17  3687.93  3602.88  3539.55  3504.53  3480.08  3462.55  3447.45  3430.27  3414.36  3400.01  3389.76  3378.06  3366.33  3350.58  3333.64  3316.19  3310.13  3308.22  3310.10  3307.09  3298.05  3286.86  3289.76  3289.33  3287.70  3292.22  3309.61  3364.85  3365.36  3340.82  3326.43  3315.38  3303.93  3288.45  3276.03  3255.93  3240.96  3222.18  3205.09  3190.78  3177.94  3163.24  3152.26  3146.99  3143.86  3139.34  3132.70  3134.58  3138.31  3144.40  3175.46  3228.78  3272.20  3194.14  3117.17  3082.53  3047.84  3016.14  2992.28  2968.85  2942.12  2919.07  2897.49  2871.38  2845.58  2828.57  2803.40  2780.25  2753.75  2726.15  2706.45  2677.34  2641.81  2611.07  2602.34  2600.72  2595.47  2593.59  2595.58  2603.09  2603.61  2601.39  2608.35  2610.73  2608.65  2604.22  2604.83  2606.26  2593.18  2610.74  2650.11  2682.55  2717.40  2745.71  2778.96  2809.34  2840.68  2875.02  2913.09  2960.24  2998.47  3056.04  3102.08  3144.39  3210.93  3273.80  3318.05  3326.92  3317.11  3332.11  3364.03  3409.01  3431.62  3427.17  3410.14  3332.51  3249.63  3180.51  3094.51  3043.16  3013.62  2993.74  2979.59  2933.01  2908.76  2899.51  2885.90  2870.30  2856.37  2853.77  2856.73  2852.87  2860.27  2856.09  2855.67  2853.17  2851.80  2857.78  2872.43  2917.32  2956.81  2984.59  2994.77  3001.35  3003.58  3017.34  3053.59  3112.46  3127.05  3126.80  3096.98  3070.43  3048.54  3028.47  3007.38
2896.74  2920.14  2949.39  2983.91  2971.96  2931.10  2931.22  2937.58  2939.78  2945.15  2950.17  2949.50  2953.55  2973.01  3036.38  3101.44  3168.73  3223.24  3239.01  3243.22  3244.96  3247.12  3261.28  3283.83  3317.67  3368.47  3428.93  3500.44  3529.60  3550.15  3567.00  3580.42  3540.80  3519.09  3513.02  3505.59  3507.63  3508.66  3508.69  3504.32  3500.42  3509.03  3530.28  3590.56  3652.82  3710.38  3722.27  3736.66  3761.18  3792.18  3822.85  3839.47  3838.41  3787.03  3714.19  3650.64  3586.79  3543.08  3512.14  3488.64  3468.92  3453.42  3438.07  3425.10  3407.57  3396.27  3386.93  3378.44  3363.81  3352.11  3329.80  3338.35  3337.34  3337.58  3328.83  3319.88  3316.11  3312.58  3306.58  3304.91  3302.18  3346.36  3384.43  3362.07  3346.63  3334.53  3325.96  3313.15  3300.06  3284.53  3269.75  3253.82  3234.81  3220.89  3203.67  3189.59  3178.86  3169.47  3161.71  3153.56  3154.10  3151.43  3153.61  3165.91  3184.64  3211.70  3267.49  3245.72  3165.93  3112.97  3078.82  3050.25  3019.61  2991.38  2965.76  2940.01  2915.66  2892.53  2862.93  2851.31  2838.51  2812.64  2785.03  2755.06  2725.83  2700.36  2673.19  2639.70  2603.76  2594.95  2591.64  2586.53  2584.11  2582.99  2586.92  2587.24  2589.53  2595.10  2601.85  2601.84  2596.54  2593.82  2595.18  2578.65  2587.65  2636.06  2659.17  2696.54  2732.62  2765.34  2807.02  2840.73  2875.02  2915.95  2982.34  3030.72  3101.01  3154.34  3174.65  3225.84  3273.00  3311.69  3337.84  3356.56  3384.88  3407.72  3433.99  3412.70  3360.53  3317.70  3283.03  3243.02  3168.22  3082.11  3020.85  3000.36  2982.21  2966.33  2936.55  2901.59  2884.91  2870.65  2851.18  2836.83  2836.53  2841.88  2839.38  2837.75  2833.32  2838.92  2836.54  2834.56  2839.51  2858.20  2889.87  2917.16  2930.36  2946.53  2965.07  2984.46  3002.11  3021.02  3054.24  3093.34  3132.93  3128.40  3106.13  3086.50  3064.66  3044.31
2863.96  2873.74  2913.72  2958.47  2922.01  2901.77  2907.62  2914.00  2916.35  2923.50  2921.44  2914.59  2919.84  2972.38  3039.18  3094.55  3154.49  3171.67  3186.87  3197.62  3200.57  3213.31  3235.56  3264.97  3318.38  3379.82  3435.78  3481.94  3480.38  3497.30  3518.49  3556.59  3515.38  3497.85  3490.68  3486.64  3486.53  3490.71  3489.55  3487.29  3486.59  3490.32  3501.25  3568.85  3632.80  3659.83  3664.79  3679.41  3708.98  3744.63  3769.28  3796.81  3814.01  3782.78  3720.96  3645.35  3598.98  3558.07  3520.72  3500.39  3479.28  3463.83  3451.42  3437.85  3426.62  3415.06  3401.13  3392.97  3396.63  3410.49  3391.80  3374.67  3361.90  3353.03  3347.78  3335.05  3330.27  3328.06  3321.78  3320.37  3341.95  3388.27  3390.50  3373.52  3357.92  3345.69  3337.82  3328.77  3314.18  3301.43  3286.03  3269.07  3244.80  3232.83  3215.99  3202.56  3192.71  3185.51  3177.39  3167.05  3168.94  3166.77  3175.85  3191.70  3224.50  3276.18  3277.69  3212.34  3167.68  3118.00  3084.55  3053.82  3019.34  2991.32  2962.39  2938.25  2916.26  2885.99  2865.31  2855.11  2829.60  2808.39  2785.36  2760.68  2727.99  2695.12  2664.53  2631.26  2591.44  2580.30  2582.33  2580.62  2579.76  2577.62  2574.14  2578.07  2579.93  2583.81  2591.24  2589.64  2585.97  2581.85  2582.20  2569.64  2568.13  2634.93  2683.57  2725.81  2759.09  2809.89  2830.72  2857.83  2905.49  2967.44  3028.68  3086.57  3136.78  3185.04  3208.74  3229.01  3247.68  3280.28  3301.15  3314.56  3329.72  3349.40  3384.98  3395.44  3314.20  3254.10  3205.64  3207.80  3178.18  3093.88  3007.70  2979.90  2964.10  2949.45  2922.06  2889.95  2865.37  2849.19  2827.80  2813.32  2815.20  2823.63  2820.96  2809.47  2812.25  2822.35  2819.89  2817.03  2826.48  2846.93  2879.74  2897.34  2918.24  2937.57  2955.28  2974.62  2996.88  3017.72  3054.53  3097.04  3138.37  3162.87  3136.90  3105.25  3059.42  3020.25
2838.28  2860.53  2890.86  2924.22  2898.28  2884.53  2880.99  2891.18  2896.42  2895.65  2877.44  2869.77  2900.65  2970.13  3036.16  3091.03  3107.34  3117.76  3130.02  3148.63  3167.66  3190.10  3216.75  3259.82  3327.59  3395.50  3441.19  3439.98  3423.79  3419.39  3455.52  3517.73  3493.85  3474.27  3469.52  3465.62  3468.31  3472.58  3474.53  3470.82  3469.14  3470.81  3482.23  3528.24  3597.55  3596.22  3595.64  3611.32  3647.14  3690.58  3724.99  3753.03  3776.95  3753.30  3712.76  3649.91  3609.81  3577.64  3540.33  3509.88  3491.36  3476.81  3464.78  3453.25  3442.31  3430.21  3424.26  3428.74  3443.17  3419.83  3405.71  3390.28  3379.17  3369.68  3359.34  3358.26  3351.25  3342.80  3337.84  3358.30  3400.18  3414.60  3401.42  3388.65  3373.11  3356.39  3347.45  3337.73  3322.68  3310.36  3296.38  3276.76  3254.07  3241.84  3229.64  3218.49  3203.89  3196.76  3188.93  3185.99  3181.25  3183.25  3197.93  3224.56  3272.57  3272.89  3233.93  3203.19  3166.62  3130.52  3102.01  3070.89  3036.11  3000.93  2962.76  2931.25  2906.50  2887.70  2864.99  2847.03  2827.08  2802.85  2777.41  2751.10  2721.24  2685.03  2653.99  2619.99  2587.99  2574.81  2574.32  2574.30  2574.47  2571.59  2567.15  2565.22  2569.12  2573.69  2578.38  2579.15  2576.28  2571.67  2569.51  2558.72  2557.82  2640.98  2689.51  2729.06  2788.82  2865.78  2887.94  2914.07  2966.69  3019.65  3049.10  3081.44  3122.59  3157.32  3161.45  3171.53  3200.07  3234.01  3256.51  3269.28  3246.42  3274.48  3337.68  3379.60  3272.53  3195.91  3168.05  3149.92  3132.93  3084.18  2999.69  2969.08  2949.25  2925.98  2902.26  2861.96  2839.29  2817.52  2800.16  2785.01  2787.32  2798.64  2801.22  2791.77  2800.28  2808.41  2802.47  2801.11  2811.91  2839.31  2871.67  2886.89  2908.70  2926.37  2943.28  2965.55  2991.49  3018.02  3058.57  3107.77  3131.77  3149.54  3129.67  3071.82  3024.53  2989.42
2820.54  2846.37  2870.08  2897.93  2880.14  2869.56  2862.38  2858.03  2852.98  2849.16  2836.65  2847.18  2908.90  2968.26  3025.32  3070.96  3079.58  3091.26  3104.79  3123.53  3143.83  3168.17  3202.13  3262.33  3342.57  3402.74  3416.75  3406.41  3376.42  3372.49  3397.70  3475.13  3469.71  3446.00  3440.80  3444.61  3444.73  3445.42  3454.28  3452.16  3447.29  3445.32  3458.64  3493.02  3549.25  3552.27  3551.65  3555.88  3582.75  3643.60  3688.18  3703.85  3716.72  3712.78  3717.07  3680.55  3634.40  3600.28  3563.47  3523.97  3507.20  3489.03  3480.11  3469.92  3453.22  3451.35  3454.61  3468.42  3456.48  3438.14  3424.04  3409.85  3391.49  3384.14  3372.44  3367.12  3366.31  3365.16  3373.49  3407.94  3439.14  3431.67  3416.26  3402.85  3388.78  3371.26  3358.23  3348.46  3333.73  3316.11  3301.20  3284.49  3266.90  3253.98  3244.23  3230.03  3216.06  3210.93  3200.22  3197.88  3201.93  3210.48  3229.37  3275.18  3270.56  3242.37  3219.49  3196.69  3176.57  3141.60  3103.39  3074.67  3031.99  3002.65  2971.07  2937.06  2910.31  2885.07  2864.86  2842.67  2822.47  2797.40  2774.24  2750.61  2729.73  2698.78  2655.89  2620.66  2580.42  2572.76  2570.74  2568.90  2566.80  2564.24  2558.77  2556.98  2559.04  2564.19  2569.75  2569.67  2566.16  2558.24  2556.85  2547.50  2521.08  2620.01  2672.11  2712.79  2760.10  2844.66  2903.00  2934.71  2958.49  2970.49  3017.60  3070.01  3105.53  3109.98  3119.82  3123.26  3136.99  3174.20  3210.03  3219.05  3212.33  3218.54  3273.98  3317.49  3250.89  3166.08  3130.43  3104.72  3108.61  3085.22  3001.70  2958.13  2933.91  2906.45  2877.86  2846.82  2815.87  2791.24  2774.57  2764.97  2758.31  2769.31  2777.70  2779.40  2790.43  2795.57  2789.43  2787.10  2798.50  2825.85  2852.68  2866.74  2893.48  2915.25  2943.58  2973.29  2997.80  3028.73  3063.25  3090.96  3102.22  3128.65  3103.01  3044.68  3007.42  2974.94
2798.35  2821.39  2844.20  2860.14  2857.10  2840.11  2825.98  2819.42  2807.51  2805.88  2802.30  2847.76  2900.22  2961.13  3020.23  3042.80  3055.51  3068.03  3083.51  3101.58  3118.93  3143.70  3202.99  3281.24  3360.70  3372.74  3374.19  3353.19  3333.01  3341.10  3375.40  3448.45  3431.53  3409.68  3405.35  3410.29  3418.69  3413.65  3421.47  3427.51  3423.47  3422.03  3434.80  3472.79  3523.45  3523.17  3522.61  3522.82  3540.74  3595.00  3642.61  3643.73  3657.97  3664.12  3729.63  3718.03  3673.94  3638.36  3592.97  3561.94  3546.00  3536.08  3521.85  3513.23  3497.58  3499.59  3499.24  3487.61  3471.78  3458.74  3445.06  3429.15  3405.72  3390.45  3391.34  3389.11  3383.24  3393.47  3418.31  3456.80  3460.68  3449.16  3432.38  3416.15  3401.57  3386.38  3370.14  3358.47  3343.51  3316.06  3302.41  3296.22  3290.01  3276.64  3263.07  3254.87  3243.85  3243.22  3237.10  3235.28  3240.18  3246.95  3294.89  3290.20  3248.61  3231.18  3213.31  3194.58  3170.78  3139.93  3106.01  3064.16  3025.44  2998.94  2969.33  2943.84  2920.99  2894.31  2870.20  2844.56  2823.32  2802.65  2779.56  2756.27  2735.12  2703.55  2663.14  2631.11  2591.22  2564.99  2562.67  2561.95  2557.17  2551.58  2546.34  2547.40  2548.68  2554.29  2558.03  2558.35  2552.45  2547.00  2541.80  2536.40  2527.98  2590.36  2654.43  2691.16  2743.04  2803.92  2853.35  2873.98  2913.96  2960.56  3031.83  3056.18  3062.80  3080.25  3086.30  3087.83  3094.01  3127.08  3160.88  3178.90  3191.88  3190.11  3232.02  3268.23  3223.49  3153.07  3107.73  3084.72  3071.40  3082.50  3005.70  2953.82  2920.66  2891.73  2858.53  2828.26  2803.65  2782.93  2766.97  2755.25  2747.14  2744.48  2755.58  2766.83  2778.53  2781.38  2778.48  2775.15  2785.82  2809.18  2820.50  2838.78  2876.60  2911.08  2939.26  2944.95  2964.78  3003.28  3030.81  3051.57  3088.09  3109.47  3078.95  3033.77  3000.50  2967.07
2762.18  2787.43  2813.72  2829.33  2831.61  2810.54  2790.20  2777.72  2752.66  2758.92  2792.77  2839.38  2881.08  2940.08  2991.09  3015.05  3031.56  3046.61  3062.88  3078.45  3096.04  3144.84  3232.22  3302.60  3347.80  3325.06  3307.11  3292.39  3297.38  3314.81  3376.88  3412.62  3386.91  3376.12  3378.39  3378.42  3383.48  3388.02  3388.15  3395.19  3400.69  3401.12  3412.27  3462.42  3501.96  3503.18  3495.81  3492.49  3504.72  3549.84  3595.12  3581.23  3590.74  3612.54  3668.25  3725.99  3722.19  3694.19  3672.16  3647.82  3615.30  3611.84  3593.47  3578.30  3575.86  3552.55  3531.76  3505.39  3485.49  3474.76  3465.24  3451.13  3425.83  3398.89  3409.63  3427.10  3431.60  3451.07  3476.76  3492.04  3480.68  3466.64  3451.20  3433.53  3419.43  3408.35  3389.48  3371.07  3359.12  3352.89  3338.79  3333.03  3324.63  3308.32  3296.96  3287.36  3276.80  3273.26  3283.49  3297.22  3310.51  3309.33  3320.33  3271.01  3254.14  3233.04  3208.72  3187.88  3165.47  3135.69  3110.58  3074.37  3035.00  3006.80  2977.50  2944.98  2922.80  2902.14  2877.32  2855.19  2829.99  2809.84  2787.05  2769.26  2742.18  2713.18  2677.32  2635.90  2600.46  2563.11  2553.22  2551.40  2546.13  2541.56  2541.54  2538.12  2539.24  2543.44  2546.02  2544.25  2541.40  2534.66  2528.05  2524.51  2524.08  2545.44  2633.07  2670.47  2708.24  2753.55  2805.61  2847.55  2897.15  2943.64  2992.66  3017.90  3024.11  3042.98  3044.12  3057.64  3063.38  3086.37  3119.41  3165.38  3169.62  3163.31  3210.05  3281.91  3271.09  3165.28  3092.03  3065.98  3046.93  3033.37  3010.95  2969.91  2924.33  2885.10  2852.72  2820.62  2796.83  2776.95  2760.15  2746.91  2738.68  2729.53  2737.67  2745.18  2754.99  2762.64  2766.40  2762.70  2772.78  2788.84  2788.35  2804.97  2841.29  2879.12  2909.18  2912.39  2931.41  2974.35  3000.24  3027.88  3067.52  3086.90  3072.68  3029.02  3002.16  2970.20
2725.06  2753.73  2778.12  2799.25  2802.22  2779.49  2749.51  2730.22  2724.50  2736.90  2777.88  2822.89  2873.15  2922.08  2960.22  2994.93  3006.60  3025.20  3041.95  3057.32  3084.93  3174.20  3253.15  3313.60  3311.59  3280.99  3253.40  3253.61  3271.60  3303.74  3367.59  3350.49  3337.28  3346.39  3351.61  3354.68  3352.79  3359.62  3362.85  3372.55  3378.77  3381.68  3384.62  3435.35  3476.27  3477.68  3465.55  3463.96  3478.12  3501.85  3538.98  3549.09  3554.06  3573.99  3617.07  3695.55  3721.46  3722.97  3716.99  3705.96  3685.80  3659.85  3654.13  3650.66  3639.97  3604.29  3574.49  3538.24  3511.24  3495.31  3490.08  3473.25  3504.40  3516.36  3487.14  3494.95  3508.41  3528.03  3530.18  3511.87  3499.02  3483.82  3468.60  3453.82  3439.98  3427.89  3413.27  3397.58  3390.49  3389.97  3380.23  3362.14  3347.37  3333.43  3319.95  3317.18  3321.35  3335.84  3359.71  3359.64  3354.03  3340.07  3290.74  3267.74  3253.49  3229.04  3201.99  3178.66  3157.48  3133.80  3111.09  3075.97  3040.09  3009.70  2977.52  2950.08  2928.84  2906.48  2884.11  2861.43  2841.03  2819.36  2793.53  2767.28  2741.79  2715.40  2685.01  2646.88  2608.09  2560.42  2542.31  2540.95  2537.11  2534.97  2534.88  2534.59  2531.93  2532.28  2534.07  2533.68  2529.14  2523.24  2516.84  2513.20  2512.56  2510.86  2600.65  2655.27  2687.51  2737.64  2788.43  2826.57  2886.72  2925.98  2954.68  2958.84  2954.45  2978.23  2997.86  3010.04  3008.95  3052.78  3115.74  3128.27  3139.93  3141.59  3174.30  3265.14  3295.13  3193.93  3098.84  3051.85  3030.19  3004.10  2996.47  2971.34  2919.75  2887.97  2860.27  2829.19  2796.95  2771.84  2753.50  2739.40  2729.73  2721.14  2714.83  2719.47  2728.38  2737.74  2745.99  2744.42  2751.47  2763.95  2761.52  2766.26  2797.40  2836.95  2859.72  2867.30  2902.48  2957.47  2995.45  3014.10  3042.72  3063.07  3078.96  3042.81  3007.92  2968.14
2689.68  2714.79  2743.80  2763.13  2763.25  2746.95  2717.62  2699.49  2703.53  2712.15  2744.09  2781.22  2843.30  2892.53  2940.38  2968.15  2988.11  3005.44  3021.42  3039.65  3079.56  3183.94  3266.89  3292.75  3256.65  3221.87  3211.57  3223.90  3254.90  3309.65  3314.13  3296.20  3307.64  3318.61  3322.33  3326.15  3328.46  3331.85  3338.60  3340.02  3342.23  3339.43  3348.55  3387.49  3447.93  3444.86  3436.02  3435.75  3449.90  3470.16  3507.98  3527.08  3533.84  3539.33  3574.77  3632.45  3680.61  3724.23  3738.88  3740.14  3732.34  3722.72  3717.81  3722.16  3696.33  3655.35  3614.99  3584.20  3557.11  3536.22  3532.89  3551.35  3581.65  3573.71  3557.45  3555.93  3572.25  3570.14  3544.49  3525.53  3512.67  3498.24  3483.84  3473.35  3459.12  3446.23  3441.02  3432.32  3419.89  3406.06  3397.00  3383.39  3368.08  3367.39  3371.12  3383.18  3405.37  3413.89  3403.84  3394.71  3381.31  3322.55  3281.84  3260.74  3243.87  3222.07  3193.59  3169.93  3148.68  3127.83  3106.30  3072.78  3042.60  3010.59  2982.93  2957.38  2931.75  2910.60  2891.15  2872.57  2847.65  2818.75  2789.29  2763.24  2740.47  2716.72  2689.26  2655.36  2613.73  2567.24  2535.84  2531.73  2530.98  2530.05  2528.32  2525.05  2525.21  2523.28  2523.40  2523.12  2516.71  2511.85  2509.33  2506.41  2505.25  2515.32  2560.85  2633.72  2680.64  2737.21  2801.82  2844.40  2878.84  2893.79  2885.05  2872.20  2880.12  2901.93  2930.08  2951.80  2966.50  2998.45  3055.95  3094.22  3112.39  3118.50  3153.83  3251.34  3295.82  3243.57  3142.08  3075.47  3018.74  2989.12  2967.69  2931.89  2914.81  2887.24  2864.62  2835.00  2802.95  2771.30  2749.27  2734.58  2723.47  2714.11  2704.55  2699.13  2705.15  2713.45  2719.58  2719.43  2723.88  2729.40  2731.36  2733.07  2756.54  2790.98  2818.18  2847.22  2875.21  2917.33  2953.17  2979.15  3004.01  3036.56  3059.73  3066.67  3019.23  2980.10
2655.55  2683.58  2707.70  2725.22  2724.93  2715.53  2689.27  2679.02  2684.40  2692.02  2722.21  2755.14  2814.14  2877.09  2927.49  2949.51  2971.44  2988.30  3008.07  3037.92  3096.33  3202.15  3262.12  3238.59  3198.91  3174.29  3181.12  3196.05  3248.93  3307.88  3266.76  3265.79  3277.16  3292.20  3296.06  3299.44  3303.86  3308.10  3315.47  3311.97  3311.66  3312.77  3325.52  3358.76  3420.03  3404.26  3400.68  3405.65  3423.30  3449.42  3488.21  3505.80  3508.81  3515.53  3540.05  3589.58  3647.88  3707.44  3764.80  3794.13  3793.12  3788.34  3780.64  3784.58  3746.57  3707.96  3659.76  3627.87  3605.81  3585.38  3572.23  3589.97  3607.19  3614.50  3613.70  3618.09  3614.01  3580.63  3553.79  3538.39  3525.28  3513.14  3499.15  3487.59  3476.81  3463.26  3456.56  3453.84  3455.77  3429.43  3412.89  3404.01  3396.92  3406.95  3435.04  3456.04  3451.84  3438.86  3428.17  3412.10  3372.23  3304.23  3271.22  3246.07  3229.48  3208.09  3182.39  3157.14  3133.39  3115.11  3094.96  3068.60  3042.31  3012.43  2988.24  2963.07  2936.94  2917.51  2895.80  2869.85  2842.23  2815.27  2787.94  2763.35  2741.73  2716.32  2686.64  2651.80  2626.44  2574.97  2529.78  2521.53  2524.99  2525.06  2523.45  2520.54  2516.78  2515.72  2515.77  2514.28  2508.87  2504.09  2500.97  2500.13  2499.01  2508.85  2564.28  2622.60  2667.82  2716.54  2773.64  2807.61  2827.38  2823.00  2831.05  2840.68  2856.71  2879.73  2902.51  2926.53  2950.43  2978.22  3029.19  3068.40  3085.10  3100.78  3154.17  3244.43  3290.38  3249.09  3188.78  3128.25  3025.26  2993.06  2961.23  2936.89  2911.85  2884.80  2859.26  2834.04  2808.42  2777.44  2750.55  2733.14  2717.90  2705.67  2698.67  2686.81  2686.28  2687.27  2691.95  2694.25  2696.39  2698.86  2701.04  2705.57  2729.95  2755.29  2784.42  2819.34  2849.48  2890.87  2917.94  2941.02  2959.80  2996.55  3026.48  3055.28  3042.87  2991.74
2630.81  2653.54  2676.28  2691.20  2699.15  2692.69  2669.28  2663.83  2667.47  2680.39  2707.78  2766.02  2828.57  2874.57  2902.74  2930.62  2951.72  2973.69  3012.70  3070.12  3116.64  3185.81  3214.72  3169.37  3145.12  3144.31  3155.00  3169.23  3228.45  3269.52  3232.30  3236.72  3251.05  3268.55  3271.05  3278.91  3280.51  3282.72  3289.27  3288.12  3290.89  3295.10  3304.27  3340.01  3395.55  3373.66  3368.05  3381.25  3400.13  3436.11  3472.53  3486.34  3489.11  3499.50  3521.06  3562.83  3620.47  3677.43  3739.90  3850.93  3862.86  3858.43  3855.79  3822.81  3775.00  3737.71  3712.58  3686.16  3656.98  3643.71  3637.68  3646.95  3658.34  3668.70  3672.16  3653.36  3621.53  3590.60  3567.59  3550.41  3539.40  3525.88  3517.00  3503.20  3498.09  3498.74  3502.49  3499.74  3495.76  3473.43  3459.58  3441.53  3440.64  3464.34  3485.22  3486.80  3474.10  3458.01  3434.73  3384.11  3323.10  3292.53  3258.89  3229.88  3209.24  3188.65  3167.60  3139.84  3113.23  3101.25  3084.03  3059.25  3039.91  3009.63  2986.86  2966.27  2944.55  2919.60  2890.26  2862.90  2839.42  2813.32  2782.81  2757.84  2742.42  2717.62  2688.53  2659.58  2628.23  2583.72  2529.63  2512.77  2517.49  2518.50  2518.93  2515.00  2509.37  2508.51  2506.28  2505.75  2501.49  2497.16  2496.39  2494.13  2495.89  2496.80  2520.38  2607.45  2651.11  2697.19  2737.20  2761.07  2770.13  2776.04  2796.05  2817.48  2838.74  2861.58  2883.99  2910.54  2942.47  2985.30  3023.80  3053.05  3068.20  3095.47  3151.52  3240.62  3250.55  3204.36  3166.22  3114.79  3047.47  2996.20  2975.65  2946.02  2914.87  2883.49  2857.83  2836.46  2812.50  2781.11  2751.88  2732.05  2714.93  2699.57  2689.80  2681.93  2676.84  2674.15  2672.31  2674.96  2675.32  2675.90  2675.71  2682.56  2701.85  2721.38  2754.57  2788.55  2843.90  2882.28  2907.02  2925.33  2941.25  2967.01  2996.82  3028.00  3043.94  2999.38
2618.97  2628.87  2650.20  2662.99  2667.14  2666.75  2659.08  2654.19  2656.82  2670.00  2700.59  2758.92  2818.28  2835.52  2872.31  2903.85  2931.14  2965.58  3043.62  3107.57  3167.36  3197.67  3152.62  3116.88  3110.59  3119.24  3128.84  3146.76  3215.60  3210.24  3204.60  3212.26  3229.97  3236.50  3247.18  3256.74  3258.35  3259.65  3268.38  3271.47  3275.51  3276.58  3278.85  3311.42  3357.88  3330.87  3341.37  3361.38  3384.97  3429.52  3458.04  3465.38  3470.29  3482.22  3497.62  3529.04  3584.70  3635.59  3685.26  3741.35  3866.33  3876.53  3897.76  3881.01  3837.75  3817.87  3782.20  3739.47  3719.75  3705.47  3696.95  3702.05  3706.95  3700.92  3692.06  3663.22  3630.70  3601.11  3577.86  3565.42  3554.46  3539.69  3531.42  3524.97  3532.61  3555.16  3548.78  3530.92  3521.64  3503.92  3486.86  3479.26  3492.44  3505.78  3506.00  3499.59  3492.09  3472.38  3420.61  3344.37  3307.85  3278.20  3250.99  3218.94  3191.52  3169.57  3148.84  3129.06  3101.26  3084.16  3068.12  3045.16  3027.11  3006.74  2984.16  2968.26  2944.47  2915.95  2885.68  2856.94  2835.28  2809.50  2785.11  2761.86  2741.78  2717.07  2692.07  2662.45  2630.78  2594.29  2546.97  2505.89  2510.84  2513.41  2512.80  2508.43  2504.28  2501.96  2500.70  2498.70  2496.23  2492.04  2491.76  2491.23  2493.09  2492.59  2479.20  2578.07  2630.53  2665.08  2690.10  2713.48  2731.94  2751.24  2774.14  2798.61  2821.96  2845.73  2872.81  2901.95  2933.69  2985.48  3017.03  3034.60  3060.68  3105.84  3170.12  3223.73  3200.36  3152.15  3133.98  3112.43  3076.86  3048.78  3010.38  2969.90  2936.18  2903.28  2864.86  2840.92  2814.61  2783.31  2749.92  2724.95  2708.73  2693.02  2682.98  2678.08  2674.20  2670.13  2664.28  2660.28  2660.75  2659.00  2659.77  2665.10  2680.18  2697.53  2719.51  2764.09  2825.32  2861.55  2886.56  2903.65  2918.42  2940.50  2972.15  3002.93  3036.25  3003.94
2616.68  2618.20  2625.65  2635.91  2638.81  2643.85  2644.96  2647.25  2657.04  2674.03  2696.95  2730.36  2778.07  2800.76  2844.23  2877.95  2913.42  2972.81  3046.31  3108.67  3153.97  3155.61  3122.26  3094.67  3091.35  3098.53  3105.05  3122.33  3179.95  3168.94  3180.11  3185.01  3207.69  3211.61  3222.86  3232.40  3242.45  3245.87  3255.19  3257.01  3253.80  3251.75  3252.24  3287.19  3308.38  3304.53  3316.25  3336.52  3369.88  3423.50  3439.95  3447.70  3452.95  3463.55  3477.04  3493.82  3540.89  3599.57  3651.46  3709.16  3783.07  3836.54  3881.64  3890.81  3875.91  3856.37  3841.85  3816.51  3789.18  3766.67  3748.59  3738.77  3724.26  3709.00  3691.28  3671.05  3640.28  3613.15  3591.82  3575.92  3566.19  3560.25  3559.86  3578.77  3602.89  3591.39  3567.48  3546.09  3534.67  3527.72  3524.47  3523.47  3529.11  3521.18  3519.18  3513.13  3505.77  3477.42  3415.78  3334.53  3293.43  3261.83  3237.59  3214.05  3179.02  3153.64  3135.57  3116.85  3093.51  3071.01  3046.59  3030.42  3012.90  2997.45  2986.87  2966.56  2942.19  2911.71  2887.97  2857.01  2838.16  2814.55  2787.97  2755.68  2741.26  2718.36  2691.66  2660.83  2628.18  2597.88  2557.90  2504.24  2506.01  2508.51  2507.15  2503.35  2498.05  2497.45  2494.33  2493.50  2490.53  2487.03  2487.22  2489.21  2491.71  2488.64  2477.74  2563.92  2596.14  2630.30  2656.58  2678.29  2704.14  2729.47  2759.16  2784.66  2813.05  2841.74  2870.07  2903.16  2940.70  2973.20  2997.53  3021.93  3057.07  3125.31  3171.93  3247.82  3146.23  3126.37  3111.10  3097.53  3092.19  3076.76  3031.60  2985.50  2951.01  2915.22  2887.08  2860.97  2831.78  2783.75  2746.55  2720.91  2704.00  2687.58  2679.55  2676.27  2673.18  2670.50  2665.95  2657.74  2651.81  2648.83  2647.55  2649.23  2663.18  2675.67  2698.12  2741.41  2791.77  2820.70  2848.23  2867.06  2887.00  2914.02  2947.53  2982.39  3022.04  3026.39
2614.39  2614.75  2617.30  2618.95  2620.23  2618.31  2625.13  2640.12  2662.73  2683.61  2702.28  2726.38  2754.99  2786.50  2823.12  2865.24  2910.87  2987.26  3049.53  3103.66  3121.48  3114.72  3104.35  3071.61  3073.69  3080.52  3085.70  3093.71  3128.59  3132.70  3149.53  3148.89  3175.16  3185.05  3198.20  3213.89  3225.61  3231.92  3237.81  3236.00  3230.64  3223.00  3226.58  3259.75  3272.70  3280.99  3290.99  3316.56  3370.08  3408.29  3419.97  3428.99  3437.01  3448.43  3458.25  3466.19  3494.78  3544.85  3618.24  3686.74  3761.36  3803.97  3862.68  3886.57  3879.76  3859.65  3835.21  3809.18  3789.36  3768.31  3745.64  3719.14  3709.74  3701.37  3691.40  3675.38  3648.15  3619.82  3605.60  3597.87  3598.80  3610.70  3611.30  3625.19  3602.43  3579.57  3542.86  3493.28  3478.20  3506.36  3514.72  3512.86  3527.49  3530.95  3526.82  3519.49  3512.27  3477.01  3429.49  3377.55  3299.87  3243.82  3217.16  3201.40  3167.25  3141.86  3120.51  3103.85  3084.61  3061.82  3041.57  3014.34  2995.62  2985.26  2972.64  2957.90  2938.89  2904.32  2883.21  2853.45  2839.62  2815.74  2787.30  2755.76  2737.95  2716.43  2696.03  2664.86  2632.22  2602.26  2575.80  2521.26  2499.99  2501.88  2501.44  2497.54  2491.91  2491.03  2488.12  2487.30  2486.45  2482.60  2483.66  2485.53  2489.22  2483.86  2472.29  2546.00  2579.90  2607.04  2632.97  2660.25  2690.26  2722.50  2756.42  2794.84  2819.10  2844.10  2874.82  2901.56  2935.16  2956.76  2985.68  3020.66  3060.24  3114.32  3195.56  3221.61  3152.86  3127.91  3107.33  3097.11  3081.32  3060.77  3030.35  2990.03  2959.23  2937.92  2925.30  2892.19  2839.14  2788.03  2752.24  2725.26  2705.88  2687.12  2678.79  2677.01  2677.08  2676.58  2669.51  2659.97  2652.05  2644.59  2638.30  2634.63  2644.40  2652.32  2671.79  2710.78  2755.77  2791.85  2820.35  2846.60  2871.75  2897.85  2933.16  2965.90  3003.10  3031.12
2613.15  2611.48  2613.89  2610.94  2612.93  2610.00  2617.38  2635.83  2660.84  2683.08  2700.12  2719.01  2743.96  2780.89  2833.55  2869.74  2919.44  2992.07  3050.01  3087.81  3080.55  3088.64  3072.01  3048.14  3052.40  3059.57  3061.87  3061.90  3083.33  3101.90  3115.37  3122.43  3149.20  3165.56  3182.18  3192.83  3200.19  3209.32  3216.75  3216.82  3209.35  3196.34  3204.33  3238.16  3258.23  3260.69  3268.46  3310.07  3363.45  3388.84  3405.35  3413.59  3424.44  3434.76  3441.68  3451.35  3471.45  3508.94  3580.94  3660.58  3721.72  3778.01  3848.14  3889.20  3887.32  3860.52  3834.56  3806.61  3783.28  3763.22  3706.95  3684.05  3678.25  3675.50  3678.97  3667.88  3642.63  3617.71  3596.52  3585.26  3584.11  3585.14  3586.39  3579.92  3558.58  3537.43  3463.41  3435.55  3424.08  3410.28  3399.65  3408.02  3442.20  3492.09  3500.59  3478.73  3462.05  3434.42  3380.35  3316.18  3277.05  3235.64  3202.53  3175.60  3151.25  3127.69  3109.20  3088.12  3067.51  3052.45  3037.80  3008.36  2979.80  2969.22  2954.89  2945.64  2920.18  2887.29  2866.39  2850.06  2830.24  2814.43  2783.81  2752.81  2735.97  2715.62  2693.67  2663.64  2636.47  2602.05  2574.82  2539.49  2494.86  2496.67  2494.51  2492.48  2487.14  2485.39  2482.23  2481.73  2480.65  2478.36  2480.08  2483.19  2485.47  2484.23  2503.64  2521.83  2553.56  2587.84  2634.05  2669.81  2700.83  2731.40  2765.24  2800.12  2822.58  2844.80  2868.50  2891.67  2918.67  2946.41  2987.22  3030.36  3074.60  3133.81  3214.70  3224.19  3175.50  3132.26  3109.13  3091.40  3074.78  3056.87  3036.12  3007.78  2987.32  2970.90  2943.85  2906.43  2855.60  2790.98  2759.63  2728.82  2708.90  2693.79  2683.82  2680.07  2681.84  2680.11  2673.53  2664.17  2654.12  2644.82  2632.45  2623.75  2625.85  2630.62  2646.86  2684.02  2724.79  2759.29  2800.65  2828.33  2855.38  2881.57  2908.38  2938.90  2975.98  3007.75
2613.13  2609.87  2609.22  2609.70  2608.60  2609.87  2615.88  2630.82  2657.19  2676.87  2691.87  2709.54  2737.72  2787.35  2834.20  2872.47  2926.93  2990.16  3042.78  3057.35  3038.33  3038.50  3024.47  3022.84  3030.90  3030.82  3029.82  3037.38  3056.94  3081.33  3087.78  3103.50  3128.93  3144.88  3159.57  3170.76  3173.75  3179.83  3182.22  3185.36  3182.83  3173.87  3185.38  3219.97  3239.39  3238.70  3244.15  3293.45  3337.72  3370.27  3388.40  3399.22  3411.08  3419.81  3428.43  3437.55  3452.65  3490.64  3558.32  3642.76  3708.31  3754.97  3800.30  3887.10  3875.72  3853.01  3825.86  3802.38  3778.95  3731.86  3685.59  3668.88  3657.53  3653.34  3660.91  3646.04  3615.36  3577.14  3577.91  3565.32  3545.34  3552.57  3549.28  3545.53  3525.99  3494.17  3454.26  3431.06  3419.74  3409.41  3396.07  3384.24  3356.33  3403.93  3464.97  3456.48  3424.80  3397.18  3320.34  3292.18  3266.55  3240.07  3203.45  3158.94  3138.58  3117.79  3097.42  3076.16  3055.95  3035.07  3017.86  2995.43  2974.34  2954.20  2934.32  2915.39  2895.49  2870.64  2855.07  2842.11  2824.17  2802.01  2774.37  2752.87  2731.93  2711.36  2687.81  2661.51  2632.25  2600.22  2570.90  2538.95  2491.36  2489.97  2490.06  2486.23  2483.35  2479.94  2476.32  2475.57  2473.64  2471.84  2474.01  2478.78  2482.22  2480.79  2494.68  2509.73  2562.55  2616.13  2654.84  2687.99  2718.39  2747.14  2777.41  2802.77  2825.02  2846.56  2868.57  2890.85  2913.89  2954.51  3004.82  3047.09  3090.74  3155.88  3233.63  3239.53  3206.96  3167.61  3109.48  3083.25  3065.39  3049.65  3036.97  3020.92  3027.92  3011.30  2962.40  2914.85  2875.25  2810.24  2760.63  2730.97  2705.84  2698.02  2690.97  2685.97  2684.23  2681.05  2674.67  2666.58  2655.95  2643.52  2629.40  2616.50  2611.96  2612.48  2626.17  2659.25  2701.38  2747.55  2781.10  2811.62  2840.25  2866.11  2887.86  2910.73  2948.92  2995.10
2614.48  2611.44  2608.25  2608.30  2607.24  2610.05  2616.57  2628.52  2647.28  2667.61  2684.07  2710.53  2748.66  2791.40  2832.81  2875.49  2934.30  2993.70  3033.89  3016.87  2994.11  2986.82  2985.32  2997.15  3004.74  3001.02  3002.55  3015.20  3039.05  3052.66  3063.09  3083.28  3108.86  3125.76  3139.32  3143.67  3151.31  3155.09  3154.15  3156.49  3155.43  3157.13  3167.04  3198.57  3215.89  3217.64  3226.52  3259.30  3312.52  3349.39  3367.86  3380.08  3394.41  3407.26  3417.07  3424.57  3434.00  3462.20  3533.12  3625.67  3670.28  3754.50  3819.52  3834.59  3841.88  3835.17  3808.59  3790.37  3771.43  3732.30  3693.30  3662.09  3641.14  3634.76  3632.21  3606.77  3557.71  3514.41  3494.11  3489.97  3485.22  3506.35  3515.89  3509.53  3500.81  3476.81  3438.61  3413.70  3408.61  3400.30  3392.40  3386.60  3379.41  3365.85  3388.15  3419.78  3409.23  3350.24  3300.69  3270.61  3253.80  3219.86  3186.10  3141.96  3120.99  3104.64  3080.91  3066.90  3043.47  3016.40  3002.14  2985.82  2961.91  2943.38  2921.31  2896.89  2877.15  2856.45  2839.11  2825.09  2804.06  2782.07  2760.62  2742.85  2719.64  2698.95  2679.45  2654.41  2627.29  2596.99  2566.90  2540.76  2496.38  2481.89  2483.42  2481.11  2478.48  2474.47  2470.74  2469.41  2467.95  2466.78  2468.78  2475.53  2477.26  2479.37  2481.83  2520.97  2582.85  2620.01  2652.15  2686.72  2724.07  2761.85  2787.95  2808.55  2830.72  2851.63  2877.76  2904.77  2932.93  2992.19  3053.21  3113.72  3147.43  3175.95  3253.43  3272.23  3222.57  3165.18  3120.80  3081.53  3057.72  3040.27  3024.35  3011.25  3003.32  3022.95  2993.20  2940.72  2883.16  2822.92  2763.68  2734.40  2708.55  2695.05  2689.64  2683.85  2679.82  2678.83  2674.61  2667.97  2655.88  2645.37  2632.70  2619.33  2602.93  2596.64  2608.17  2626.84  2672.90  2716.68  2750.91  2793.85  2820.37  2847.25  2870.27  2889.42  2921.38  2965.70
2615.66  2612.31  2609.69  2606.05  2606.68  2611.26  2616.33  2622.49  2636.52  2657.74  2681.29  2715.87  2752.58  2785.85  2823.67  2883.05  2941.51  2997.10  3007.10  2971.95  2953.68  2952.34  2960.34  2972.03  2982.06  2977.79  2982.67  2996.94  3018.44  3023.01  3041.20  3064.77  3088.29  3102.19  3109.32  3117.51  3123.90  3126.96  3132.76  3139.08  3137.45  3137.01  3144.18  3172.85  3197.70  3204.77  3211.20  3252.25  3285.61  3318.20  3347.10  3355.98  3372.20  3392.78  3405.03  3412.86  3424.85  3449.20  3507.53  3604.58  3677.49  3751.85  3761.44  3774.79  3800.59  3812.57  3791.93  3779.43  3757.27  3736.51  3705.32  3653.82  3622.25  3615.01  3599.65  3560.29  3523.64  3492.05  3471.07  3450.50  3436.20  3420.04  3442.66  3479.29  3481.85  3460.13  3420.73  3398.66  3393.95  3386.36  3381.79  3379.55  3375.00  3370.58  3355.90  3340.19  3385.22  3339.43  3283.58  3254.77  3226.15  3197.38  3170.94  3131.55  3105.57  3087.83  3066.34  3044.64  3023.98  3003.72  2986.76  2971.76  2949.05  2929.78  2904.78  2882.40  2867.69  2850.68  2833.46  2815.99  2797.74  2775.28  2755.70  2737.87  2715.39  2695.82  2674.22  2649.76  2621.11  2591.17  2560.79  2533.64  2495.50  2473.13  2477.76  2476.01  2473.04  2468.58  2464.95  2462.43  2462.17  2461.80  2463.74  2470.79  2472.94  2473.95  2471.78  2517.85  2591.64  2629.22  2661.57  2702.54  2735.67  2767.33  2804.13  2838.11  2858.21  2877.41  2899.86  2930.30  2969.87  3027.89  3095.05  3154.06  3208.08  3244.42  3248.98  3237.69  3220.57  3181.22  3156.82  3084.45  3049.40  3026.68  3002.58  2984.53  2977.81  2982.29  3002.75  2945.03  2885.22  2822.20  2772.75  2738.03  2714.06  2697.38  2684.83  2681.10  2675.37  2673.84  2671.58  2661.27  2649.59  2640.19  2624.00  2602.30  2588.20  2584.02  2594.52  2614.43  2642.30  2683.81  2728.15  2780.22  2806.18  2841.11  2865.38  2891.11  2923.20  2966.35
2614.47  2611.12  2609.18  2607.03  2604.66  2608.82  2612.40  2616.11  2625.73  2650.62  2683.71  2715.38  2753.83  2787.17  2822.62  2879.46  2933.29  2966.73  2974.28  2942.59  2926.46  2926.55  2935.47  2945.40  2950.22  2952.54  2962.30  2983.14  2986.12  3002.52  3027.80  3045.86  3065.31  3074.39  3082.06  3080.45  3077.85  3101.08  3116.07  3123.78  3123.95  3121.77  3130.76  3155.32  3179.83  3184.10  3197.67  3244.01  3267.73  3289.66  3314.35  3327.80  3351.07  3376.60  3392.35  3402.16  3416.43  3445.96  3503.02  3571.79  3686.09  3704.62  3696.64  3718.68  3754.31  3793.41  3789.62  3765.57  3742.74  3713.93  3645.36  3600.26  3593.76  3591.59  3577.54  3530.89  3499.24  3477.86  3449.54  3427.84  3415.07  3403.38  3386.19  3402.04  3447.82  3444.24  3404.48  3376.35  3371.72  3370.20  3369.57  3369.60  3367.10  3361.78  3348.87  3330.46  3310.21  3288.32  3270.51  3245.75  3217.95  3186.82  3157.20  3128.00  3094.67  3074.86  3052.53  3029.65  3006.68  2983.52  2961.89  2949.79  2934.86  2918.72  2896.12  2872.23  2858.28  2842.28  2825.17  2803.74  2783.24  2764.77  2746.92  2732.91  2713.84  2693.79  2672.63  2648.51  2615.39  2586.12  2552.80  2520.41  2489.80  2467.90  2469.07  2470.74  2467.48  2463.28  2459.83  2456.93  2455.74  2455.05  2457.80  2465.78  2468.86  2469.91  2453.68  2506.45  2595.59  2638.71  2667.86  2710.90  2755.50  2791.30  2825.25  2866.72  2905.22  2949.72  2946.53  2972.93  3016.97  3055.00  3108.59  3189.00  3222.41  3230.65  3221.03  3205.57  3198.82  3202.22  3190.39  3099.64  3049.23  3015.47  2988.16  2970.81  2958.60  2949.42  2955.50  2933.14  2890.03  2844.95  2774.95  2724.33  2708.97  2694.56  2679.72  2675.85  2671.34  2664.34  2661.50  2652.02  2639.74  2628.66  2609.47  2587.52  2576.08  2576.03  2589.87  2611.99  2635.80  2667.17  2710.15  2761.80  2811.19  2832.14  2856.25  2893.73  2932.94  2946.09
2610.89  2611.82  2609.20  2606.25  2603.89  2603.88  2606.93  2610.64  2617.10  2641.97  2675.97  2712.30  2751.71  2777.35  2810.37  2861.45  2905.57  2927.15  2931.18  2914.32  2903.35  2903.33  2910.68  2915.97  2920.07  2926.43  2943.01  2959.65  2960.96  2985.12  3008.58  3023.36  3035.81  3044.32  3047.11  3049.73  3050.41  3069.95  3090.19  3095.65  3101.98  3106.85  3120.88  3144.89  3159.17  3160.95  3183.78  3232.72  3253.28  3270.84  3282.57  3303.50  3335.69  3360.81  3371.55  3380.63  3396.90  3434.95  3483.68  3588.11  3612.16  3637.85  3640.54  3665.82  3705.42  3751.59  3792.80  3757.64  3729.45  3677.24  3611.49  3588.28  3574.02  3563.77  3550.74  3523.48  3491.83  3466.81  3439.51  3417.30  3396.46  3384.25  3373.28  3360.44  3353.93  3357.15  3350.76  3347.54  3350.16  3356.35  3357.09  3358.44  3355.89  3348.73  3334.94  3318.32  3303.17  3289.52  3269.57  3256.48  3222.67  3175.01  3141.30  3115.96  3090.68  3066.93  3036.97  3018.15  2985.43  2967.80  2944.18  2928.92  2909.26  2900.28  2890.52  2872.66  2852.42  2825.89  2804.51  2789.23  2771.88  2749.37  2735.22  2717.89  2705.23  2687.66  2663.15  2637.96  2610.94  2579.32  2544.41  2510.60  2483.87  2459.83  2462.22  2463.93  2462.61  2457.96  2453.61  2450.56  2449.88  2448.67  2451.83  2460.30  2465.54  2464.90  2458.14  2494.63  2580.99  2622.01  2650.42  2685.65  2740.65  2785.58  2832.64  2888.93  2939.61  2990.14  3010.27  3047.15  3079.15  3115.59  3143.59  3188.30  3214.72  3203.75  3191.12  3177.72  3173.68  3174.93  3151.46  3108.45  3081.10  3011.82  2982.41  2961.51  2936.72  2917.18  2906.25  2879.33  2853.28  2819.61  2758.98  2714.96  2693.51  2671.56  2661.99  2656.63  2643.76  2633.34  2623.86  2621.15  2621.00  2616.65  2608.04  2585.65  2568.69  2569.53  2579.68  2597.83  2619.80  2643.59  2687.82  2730.15  2765.35  2790.35  2846.53  2892.62  2914.88  2903.04
2611.90  2609.32  2609.03  2607.04  2604.62  2602.27  2601.35  2603.33  2610.59  2633.97  2670.45  2707.71  2739.49  2764.40  2791.28  2832.99  2866.97  2887.84  2887.20  2885.28  2884.38  2881.80  2890.16  2894.30  2899.95  2904.34  2926.21  2927.16  2937.19  2959.25  2986.22  3005.62  3011.43  3016.96  3021.25  3024.51  3031.15  3047.00  3058.65  3068.39  3078.62  3089.68  3106.97  3130.86  3141.48  3144.49  3168.68  3215.85  3238.25  3257.54  3267.97  3294.06  3322.68  3341.78  3351.17  3362.22  3385.44  3447.18  3534.80  3538.82  3533.58  3561.84  3587.58  3623.35  3663.89  3702.88  3761.68  3768.82  3705.44  3646.72  3607.75  3584.32  3564.41  3548.48  3532.94  3511.93  3486.35  3461.11  3438.68  3413.81  3386.40  3370.06  3360.77  3354.22  3347.07  3334.80  3331.40  3323.71  3326.90  3333.37  3339.51  3343.45  3337.68  3334.49  3321.70  3307.32  3296.85  3286.24  3270.88  3256.42  3217.66  3154.03  3128.55  3107.66  3086.53  3061.88  3032.99  3007.31  2979.19  2962.30  2937.55  2917.47  2900.16  2884.43  2866.09  2850.77  2840.59  2811.45  2783.58  2773.74  2758.26  2738.80  2718.76  2701.29  2685.75  2667.02  2650.43  2625.89  2598.67  2570.63  2536.48  2508.75  2477.76  2449.42  2454.16  2457.60  2458.31  2452.91  2448.43  2444.30  2443.89  2442.36  2445.55  2453.34  2458.35  2459.06  2456.49  2506.47  2568.53  2604.00  2631.28  2664.16  2711.28  2769.12  2813.31  2870.31  2916.09  2950.32  2993.95  3038.66  3091.19  3137.70  3185.89  3195.51  3175.68  3171.80  3163.20  3154.27  3154.55  3151.12  3112.32  3082.65  3065.43  3034.05  2978.22  2951.90  2926.66  2897.88  2875.14  2835.64  2808.18  2789.11  2756.76  2718.17  2685.95  2656.91  2634.53  2621.78  2608.62  2595.26  2583.82  2577.18  2581.95  2590.35  2592.43  2577.45  2560.51  2554.20  2560.96  2578.03  2600.26  2624.10  2666.53  2705.02  2746.78  2785.32  2848.65  2885.22  2874.94  2860.65
2611.94  2610.96  2606.89  2604.93  2603.62  2601.89  2599.06  2597.33  2601.84  2622.54  2662.67  2698.47  2724.64  2753.86  2778.20  2810.38  2834.91  2844.54  2851.75  2863.78  2865.18  2864.96  2868.30  2875.19  2879.20  2884.52  2898.86  2898.28  2917.20  2944.17  2968.95  2987.16  2992.68  2996.73  2997.20  2998.55  3007.27  3017.03  3030.00  3039.07  3055.93  3069.26  3082.15  3097.44  3118.99  3130.26  3158.31  3199.78  3224.78  3243.84  3252.99  3283.88  3301.84  3319.27  3333.59  3350.15  3380.00  3494.89  3513.80  3507.35  3508.48  3521.47  3543.54  3584.50  3636.29  3677.34  3733.42  3795.43  3695.66  3637.77  3605.48  3580.99  3557.35  3536.31  3517.60  3497.44  3478.39  3454.43  3431.93  3402.16  3376.29  3359.99  3351.99  3347.40  3341.71  3335.98  3326.07  3315.76  3311.51  3312.58  3316.30  3322.94  3320.38  3316.58  3310.49  3300.70  3288.64  3278.37  3263.41  3237.00  3186.16  3135.84  3113.57  3096.81  3077.11  3056.53  3039.37  3019.78  2982.15  2946.71  2930.84  2916.82  2898.49  2875.24  2853.60  2832.36  2816.93  2801.73  2773.86  2752.88  2742.95  2714.33  2696.95  2687.86  2669.07  2651.99  2635.75  2612.57  2583.41  2559.15  2525.20  2500.66  2469.86  2437.54  2444.11  2450.02  2451.33  2448.40  2443.27  2438.46  2437.31  2436.80  2437.80  2446.32  2450.34  2449.39  2442.39  2501.57  2552.00  2581.26  2598.39  2653.14  2701.95  2755.75  2810.47  2864.88  2906.63  2950.05  2992.04  3043.16  3096.51  3139.11  3166.70  3145.47  3136.20  3134.93  3130.83  3129.37  3135.57  3130.83  3103.44  3071.99  3047.58  3038.37  3007.99  2953.70  2922.64  2894.40  2869.01  2836.20  2793.18  2764.77  2742.00  2713.20  2682.16  2651.89  2624.83  2600.51  2579.52  2563.80  2552.12  2540.91  2535.80  2541.45  2559.45  2557.45  2548.89  2547.90  2549.62  2562.49  2585.11  2612.43  2644.47  2697.47  2744.81  2797.32  2827.97  2854.74  2839.97  2825.35
2608.38  2609.23  2609.66  2606.73  2603.66  2601.17  2597.57  2592.62  2593.71  2608.44  2645.74  2684.09  2713.55  2737.75  2765.79  2793.21  2807.38  2814.25  2828.09  2847.41  2844.26  2845.05  2851.36  2855.90  2854.23  2861.72  2865.67  2872.78  2903.63  2927.52  2946.55  2963.03  2975.48  2978.22  2980.67  2985.77  2988.40  2994.20  3002.55  3016.33  3032.76  3044.47  3056.28  3080.43  3101.38  3120.14  3152.30  3185.95  3210.63  3224.45  3242.97  3272.52  3284.24  3299.69  3317.17  3336.95  3414.14  3505.37  3498.37  3492.57  3493.13  3501.71  3511.45  3537.62  3591.98  3652.13  3694.04  3788.97  3701.62  3653.41  3605.76  3581.11  3555.07  3527.28  3507.86  3489.69  3471.03  3446.90  3419.82  3388.07  3364.08  3351.22  3345.29  3341.01  3335.09  3325.27  3317.30  3308.04  3299.98  3293.80  3291.19  3293.99  3296.66  3295.72  3291.51  3286.12  3276.88  3262.56  3243.73  3200.09  3152.68  3120.55  3097.96  3080.78  3064.79  3044.18  3018.95  3000.16  2978.91  2949.40  2931.67  2912.02  2885.13  2860.61  2839.60  2821.88  2804.18  2781.48  2763.31  2744.62  2727.26  2703.65  2679.97  2669.77  2655.85  2638.10  2617.03  2593.25  2568.56  2543.55  2515.14  2485.16  2452.22  2425.74  2436.67  2442.89  2444.93  2443.92  2438.38  2433.19  2431.75  2429.78  2431.95  2438.79  2442.09  2440.45  2420.43  2476.81  2530.61  2542.71  2601.52  2651.99  2709.03  2772.44  2817.10  2862.75  2906.92  2958.26  3002.89  3048.22  3092.31  3131.93  3132.88  3109.50  3108.13  3108.35  3106.87  3112.53  3120.95  3081.35  3045.51  3020.51  3019.44  3019.50  3017.48  2987.21  2921.99  2895.07  2869.19  2842.07  2806.89  2771.61  2737.48  2704.45  2672.05  2643.01  2616.75  2589.96  2564.08  2538.89  2522.29  2512.70  2505.78  2502.66  2514.45  2535.50  2544.23  2547.07  2546.14  2552.93  2570.78  2589.97  2619.43  2667.97  2716.35  2760.51  2802.01  2820.53  2805.24  2793.82
2606.84  2606.62  2607.63  2606.51  2604.32  2599.97  2595.14  2590.54  2587.06  2593.89  2616.84  2654.20  2688.05  2714.72  2743.86  2771.28  2783.39  2794.83  2811.83  2824.57  2820.49  2822.69  2832.28  2837.68  2832.88  2831.20  2834.37  2860.46  2890.69  2917.07  2927.11  2938.77  2947.46  2949.37  2955.53  2962.44  2965.90  2976.12  2987.36  2995.36  3009.00  3021.94  3046.67  3069.19  3093.95  3118.16  3143.24  3169.61  3201.10  3210.66  3232.38  3260.49  3270.63  3281.57  3297.10  3348.29  3456.03  3475.90  3476.65  3477.75  3477.66  3482.82  3489.91  3508.14  3564.43  3620.11  3670.10  3755.53  3731.34  3688.94  3633.09  3592.62  3563.26  3531.07  3505.76  3482.36  3460.02  3436.75  3409.58  3375.51  3356.06  3346.82  3339.93  3335.29  3329.80  3317.05  3310.24  3301.68  3291.22  3281.69  3277.31  3275.61  3270.69  3270.86  3267.37  3263.79  3259.11  3243.14  3223.62  3183.38  3144.55  3115.12  3089.12  3063.70  3047.22  3024.28  3005.96  2984.26  2966.41  2948.32  2923.76  2903.57  2876.32  2850.50  2827.91  2808.35  2789.23  2767.78  2746.25  2728.98  2708.88  2687.04  2668.64  2654.26  2637.57  2617.25  2596.84  2569.87  2545.25  2521.94  2493.18  2463.82  2433.82  2414.45  2417.00  2433.34  2439.44  2437.82  2433.05  2428.84  2426.10  2424.37  2424.19  2429.98  2433.58  2429.38  2426.03  2447.95  2482.33  2581.38  2620.20  2654.34  2705.75  2759.77  2808.61  2862.80  2920.14  2969.86  3018.17  3069.20  3113.92  3133.78  3105.22  3089.22  3091.47  3087.77  3083.66  3095.78  3089.57  3021.89  3004.34  2983.74  2975.42  2988.10  2989.73  2980.58  2929.36  2904.89  2890.68  2865.48  2837.77  2798.48  2739.78  2689.12  2662.14  2631.70  2602.85  2578.96  2554.46  2529.05  2506.56  2487.29  2479.19  2477.62  2489.85  2526.95  2546.20  2550.00  2548.38  2545.11  2555.52  2576.94  2609.34  2644.43  2689.20  2732.57  2777.25  2783.50  2769.60  2759.89
2605.61  2604.08  2605.01  2602.46  2602.14  2599.57  2594.47  2589.07  2583.89  2582.13  2589.89  2615.39  2649.14  2683.16  2715.11  2738.95  2760.30  2776.68  2784.85  2790.20  2790.23  2796.45  2807.45  2807.09  2807.32  2797.54  2809.93  2840.50  2875.03  2908.10  2916.11  2916.69  2923.90  2924.27  2927.44  2937.33  2948.50  2957.49  2966.68  2973.83  2982.93  3009.30  3035.64  3057.74  3087.28  3113.04  3129.27  3160.20  3185.33  3198.66  3225.60  3250.90  3256.61  3263.14  3283.41  3364.52  3445.08  3451.07  3454.09  3458.70  3460.16  3463.02  3468.38  3480.82  3535.22  3603.36  3650.80  3696.94  3737.45  3710.46  3678.01  3635.16  3592.03  3546.88  3510.43  3472.89  3446.32  3427.55  3403.65  3372.69  3353.08  3345.21  3343.24  3332.22  3322.33  3310.78  3301.70  3293.48  3285.01  3277.54  3271.57  3266.20  3259.69  3250.70  3242.70  3237.78  3231.24  3221.48  3201.34  3181.26  3159.12  3118.66  3080.97  3053.26  3034.22  3013.85  2991.02  2971.44  2966.25  2944.81  2910.20  2889.75  2868.40  2845.41  2819.95  2793.46  2772.11  2757.41  2737.03  2709.65  2691.24  2675.69  2659.07  2639.10  2618.57  2595.71  2573.16  2546.16  2521.46  2498.41  2477.72  2453.28  2421.60  2404.57  2412.57  2418.02  2430.40  2433.19  2429.71  2424.29  2420.68  2418.80  2419.01  2423.72  2425.76  2416.80  2424.30  2450.45  2525.70  2582.60  2628.38  2670.44  2725.03  2779.76  2830.22  2867.51  2924.85  2981.61  3025.89  3077.28  3121.33  3117.80  3086.44  3071.93  3069.76  3059.71  3055.13  3066.31  3056.63  3000.79  2972.47  2961.27  2947.89  2945.72  2944.72  2937.55  2935.30  2926.22  2897.88  2853.40  2814.84  2759.46  2702.83  2671.58  2644.82  2616.89  2589.99  2561.17  2538.03  2517.01  2495.85  2474.21  2457.03  2450.74  2461.85  2499.98  2520.02  2529.62  2534.25  2537.27  2546.18  2569.57  2599.18  2644.00  2696.67  2732.74  2750.22  2742.93  2734.76  2731.64
2604.09  2602.00  2602.26  2601.62  2597.30  2596.74  2592.75  2589.59  2583.92  2578.04  2575.66  2587.09  2619.81  2652.90  2684.11  2709.69  2727.40  2742.36  2751.81  2758.47  2759.44  2761.14  2768.06  2764.51  2764.52  2769.26  2807.45  2841.72  2872.53  2899.80  2901.33  2892.97  2895.13  2892.20  2903.42  2910.15  2926.50  2940.74  2944.22  2943.63  2957.44  2988.27  3023.61  3046.45  3076.65  3092.68  3110.76  3145.27  3164.47  3188.30  3219.07  3237.30  3241.84  3249.90  3274.12  3366.15  3425.12  3427.84  3430.21  3438.18  3440.19  3441.20  3446.41  3458.08  3505.97  3571.87  3624.52  3690.85  3738.50  3701.21  3658.42  3620.66  3590.69  3565.41  3514.07  3482.93  3444.72  3419.95  3398.28  3375.47  3356.71  3346.09  3337.85  3326.44  3313.15  3301.00  3291.75  3283.70  3276.25  3269.28  3262.85  3257.09  3249.96  3240.43  3227.60  3211.70  3198.30  3188.90  3174.21  3156.64  3144.35  3124.74  3064.80  3038.76  3017.94  3002.86  2981.34  2954.73  2939.64  2942.61  2907.99  2879.90  2850.68  2830.34  2808.87  2789.97  2768.49  2749.95  2729.09  2698.85  2679.15  2665.61  2650.42  2624.66  2605.86  2579.09  2558.21  2535.12  2513.43  2487.43  2463.68  2440.47  2410.50  2393.44  2400.57  2413.72  2425.32  2428.21  2426.54  2420.09  2416.20  2414.36  2413.28  2416.97  2419.83  2413.62  2413.08  2455.90  2555.25  2611.34  2651.74  2693.88  2746.57  2806.64  2854.22  2893.15  2940.03  2986.52  3027.66  3073.25  3118.22  3101.01  3069.67  3054.24  3043.98  3030.23  3017.21  3015.45  3015.30  2987.04  2958.39  2940.11  2928.47  2923.52  2910.72  2893.89  2877.91  2869.53  2854.28  2809.88  2765.98  2722.26  2692.28  2663.84  2637.72  2605.58  2574.74  2547.18  2521.04  2499.90  2481.04  2460.97  2442.07  2429.92  2427.60  2453.90  2487.86  2503.01  2514.45  2518.53  2533.16  2557.10  2600.64  2647.05  2680.20  2700.18  2711.05  2708.56  2705.18  2705.90
2602.36  2600.22  2598.94  2598.91  2594.60  2589.78  2590.53  2584.50  2580.72  2575.49  2569.54  2572.21  2590.78  2621.27  2653.38  2674.02  2691.51  2706.70  2715.49  2725.91  2720.12  2722.69  2722.58  2727.70  2728.24  2765.94  2814.61  2841.01  2858.97  2877.04  2880.10  2869.57  2865.04  2868.11  2880.49  2885.67  2903.20  2915.47  2919.24  2930.09  2947.07  2976.67  3012.61  3035.77  3064.32  3078.36  3104.15  3133.00  3158.20  3181.52  3203.41  3218.75  3223.98  3240.19  3277.00  3376.22  3401.18  3409.05  3412.16  3416.48  3421.37  3420.49  3424.32  3436.85  3474.48  3550.20  3615.07  3679.94  3711.81  3692.77  3641.89  3597.32  3570.97  3550.69  3526.14  3499.09  3458.50  3426.82  3405.93  3383.17  3362.14  3347.66  3334.52  3320.99  3306.39  3291.33  3281.16  3273.53  3266.85  3260.70  3254.83  3250.90  3246.67  3238.01  3222.95  3200.34  3177.31  3160.39  3148.68  3137.57  3118.09  3084.75  3055.39  3025.24  2988.12  2975.49  2963.78  2938.97  2916.16  2898.10  2879.53  2858.03  2834.50  2807.24  2788.18  2767.09  2749.01  2728.84  2709.42  2685.10  2665.23  2652.49  2637.14  2613.60  2587.48  2565.09  2544.26  2522.62  2497.61  2473.61  2449.88  2418.82  2390.45  2380.12  2393.84  2401.69  2416.88  2421.51  2420.60  2414.18  2411.43  2409.93  2408.41  2412.85  2414.08  2409.77  2404.66  2466.25  2547.85  2605.72  2644.03  2690.32  2743.93  2791.12  2833.92  2889.70  2943.44  2991.55  3041.65  3077.61  3114.43  3081.19  3052.38  3038.80  3028.73  3018.83  3000.98  2988.86  2983.39  2974.35  2955.57  2929.35  2913.04  2902.26  2891.37  2877.34  2854.47  2826.18  2798.05  2766.48  2734.32  2704.90  2683.82  2661.28  2631.92  2602.17  2567.08  2537.65  2509.38  2480.27  2461.45  2445.17  2429.05  2413.56  2405.67  2425.46  2459.31  2480.07  2489.15  2500.52  2526.53  2568.01  2605.55  2633.17  2651.52  2666.67  2676.72  2672.56  2671.75  2675.20
2600.03  2597.99  2595.36  2594.49  2593.21  2585.79  2583.62  2580.42  2575.65  2574.22  2567.55  2563.88  2568.07  2584.84  2615.73  2641.95  2659.23  2665.95  2669.27  2681.97  2678.65  2680.35  2682.02  2690.65  2723.20  2775.20  2808.20  2828.87  2839.86  2855.05  2851.76  2839.97  2835.12  2848.12  2855.05  2870.76  2885.03  2897.47  2902.58  2917.01  2933.00  2971.33  2999.15  3028.65  3053.22  3073.47  3099.85  3126.87  3151.27  3169.25  3188.99  3199.97  3206.33  3233.80  3309.42  3363.49  3376.07  3390.69  3397.72  3396.70  3402.13  3401.16  3407.34  3419.98  3447.38  3522.09  3600.55  3658.50  3664.63  3687.64  3641.52  3590.95  3564.84  3540.71  3522.66  3498.04  3467.53  3444.70  3422.57  3398.15  3374.05  3348.55  3332.04  3320.70  3304.42  3287.19  3274.04  3263.65  3257.41  3252.99  3250.34  3247.82  3243.24  3235.30  3217.04  3197.70  3173.90  3153.97  3138.23  3127.65  3110.44  3092.97  3054.28  3017.14  2973.10  2954.62  2936.60  2914.40  2896.80  2872.24  2856.16  2835.83  2821.53  2805.52  2780.26  2755.07  2734.24  2716.22  2692.80  2672.84  2648.82  2639.69  2620.95  2593.19  2574.70  2548.16  2526.28  2503.28  2481.81  2459.16  2431.69  2400.51  2368.88  2367.76  2382.67  2394.95  2402.87  2413.03  2414.72  2410.09  2408.06  2404.89  2403.07  2408.15  2409.68  2402.52  2396.87  2443.19  2536.97  2598.59  2635.40  2677.71  2723.86  2783.20  2832.45  2887.31  2944.14  2992.26  3048.31  3094.00  3113.56  3062.62  3034.45  3024.78  3015.57  3004.80  2994.01  2978.66  2965.32  2956.31  2948.57  2926.45  2905.74  2893.33  2881.28  2866.88  2843.68  2814.57  2784.78  2754.28  2727.20  2703.35  2683.88  2660.57  2628.74  2595.55  2561.06  2527.47  2495.50  2459.32  2440.34  2426.75  2412.28  2398.05  2385.19  2394.58  2413.72  2437.62  2445.99  2473.65  2503.61  2546.96  2590.83  2617.26  2624.93  2634.33  2634.92  2635.89  2645.49  2644.58
