NCOLS       210
NROWS       50
XLLCORNER          647500
YLLCORNER          148550
CELLSIZE          50
NODATA_VALUE   -9999
3010.12  3005.14  2997.74  2982.01  2958.88  2937.86  2923.61  2916.57  2914.05  2913.75  2914.89  2919.41  2925.55  2932.50  2939.61  2947.27  2956.38  2967.33  2981.04  2996.08  3009.13  3021.46  3035.07  3043.45  3050.81  3059.52  3066.72  3072.53  3077.80  3083.78  3091.80  3100.95  3110.90  3120.17  3126.29  3131.65  3136.18  3143.01  3160.45  3184.60  3213.64  3282.65  3321.47  3377.01  3465.82  3541.35  3540.66  3538.03  3536.87  3535.64  3526.80  3513.28  3498.11  3479.76  3459.33  3437.44  3422.53  3409.55  3395.61  3380.01  3365.77  3352.61  3338.39  3319.30  3302.62  3293.28  3282.68  3268.23  3251.33  3229.77  3207.35  3186.28  3168.57  3150.81  3130.32  3106.43  3084.16  3064.20  3047.16  3028.86  3006.39  2986.11  2969.48  2958.35  2948.56  2939.00  2930.70  2923.83  2917.27  2909.94  2901.67  2894.00  2886.58  2879.02  2873.09  2866.95  2860.46  2854.20  2847.19  2840.84  2834.36  2828.69  2823.64  2820.30  2817.57  2814.54  2811.22  2807.39  2804.10  2800.47  2796.53  2793.27  2789.84  2785.91  2782.22  2778.81  2775.55  2772.58  2769.24  2766.27  2763.16  2759.98  2756.46  2753.37  2750.99  2749.15  2747.69  2745.38  2742.82  2741.10  2738.70  2736.45  2733.70  2730.47  2726.69  2721.40  2717.18  2716.11  2727.75  2745.24  2771.86  2789.99  2776.33  2744.67  2731.37  2731.56  2731.21  2743.25  2748.80  2756.38  2765.19  2773.03  2778.12  2783.82  2785.95  2789.72  2787.91  2786.56  2775.07  2772.19  2782.94  2802.90  2848.01  2886.41  2905.06  2910.61  2911.32  2910.33  2911.43  2913.42  2913.67  2916.78  2922.43  2930.56  2940.94  2956.52  2977.54  3014.06  3044.68  3073.60  3106.17  3142.27  3193.74  3259.77  3324.16  3375.18  3384.51  3394.07  3404.50  3421.62  3440.76  3455.07  3466.59  3473.69  3453.63  3414.77  3360.46  3305.34  3264.89  3258.38  3244.06  3226.23  3205.26  3181.27  3159.47  3124.43  3095.03  3075.22  3049.36  3035.05
2973.05  2965.26  2956.32  2940.05  2913.16  2903.67  2908.62  2906.83  2901.98  2900.99  2904.77  2911.06  2917.79  2925.10  2932.76  2942.08  2951.22  2963.51  2978.62  2995.28  3011.27  3025.89  3040.01  3047.97  3053.38  3060.42  3068.86  3075.78  3081.58  3088.08  3095.13  3102.67  3111.31  3120.33  3126.11  3130.71  3135.18  3140.60  3155.73  3180.41  3210.19  3253.10  3316.64  3391.14  3482.71  3516.95  3520.89  3529.28  3531.16  3528.49  3521.62  3510.74  3498.40  3482.63  3465.32  3446.40  3432.27  3416.46  3397.74  3378.58  3362.12  3348.05  3334.50  3317.36  3301.35  3290.92  3280.99  3266.33  3246.35  3226.01  3203.82  3182.93  3167.24  3151.50  3131.18  3109.23  3086.30  3062.89  3048.45  3034.61  3016.30  2999.57  2988.34  2976.22  2965.24  2956.01  2948.79  2942.74  2935.21  2926.37  2915.22  2904.51  2895.52  2886.24  2877.53  2869.96  2861.63  2854.01  2846.88  2840.51  2834.01  2828.66  2825.33  2821.82  2819.70  2816.97  2813.61  2810.76  2806.97  2803.46  2799.91  2795.96  2792.28  2788.63  2785.09  2781.32  2778.07  2774.79  2771.10  2766.93  2763.58  2761.14  2758.35  2754.64  2750.50  2746.46  2743.70  2742.04  2740.18  2737.76  2735.63  2734.43  2731.74  2728.52  2725.70  2721.49  2717.26  2712.82  2706.53  2711.49  2734.36  2740.36  2724.17  2706.05  2702.37  2712.53  2731.43  2740.63  2746.16  2753.10  2757.99  2762.77  2767.24  2772.56  2777.70  2780.92  2779.53  2777.12  2771.89  2778.13  2786.33  2801.15  2836.49  2872.11  2891.95  2900.01  2902.43  2903.63  2904.89  2905.97  2907.39  2911.72  2918.15  2926.89  2937.14  2953.09  2971.55  3006.03  3036.28  3072.54  3122.15  3169.44  3233.24  3290.40  3328.53  3344.15  3378.81  3406.14  3418.04  3432.74  3450.43  3465.37  3476.47  3483.72  3482.45  3454.71  3423.60  3338.24  3297.70  3278.76  3260.20  3233.91  3206.10  3175.63  3147.27  3120.78  3094.39  3069.75  3044.22  3029.47
2933.03  2924.37  2916.10  2900.26  2892.30  2894.43  2900.84  2898.65  2895.51  2895.76  2898.35  2903.45  2910.64  2917.14  2925.26  2935.38  2945.75  2958.63  2974.40  2993.34  3012.67  3030.99  3047.50  3056.81  3059.45  3064.87  3074.30  3082.13  3087.43  3093.24  3099.81  3106.36  3113.08  3120.26  3125.11  3129.51  3133.93  3138.51  3151.40  3172.85  3204.80  3254.59  3316.45  3394.72  3469.10  3495.26  3510.51  3522.61  3526.07  3525.13  3518.68  3510.01  3497.96  3484.87  3468.63  3453.26  3438.62  3421.56  3401.43  3380.78  3360.65  3344.22  3329.14  3313.28  3299.27  3287.20  3274.51  3253.70  3233.93  3217.35  3200.01  3177.99  3158.24  3145.37  3132.40  3113.29  3088.53  3065.52  3050.95  3038.39  3024.30  3012.93  3002.16  2991.14  2981.48  2972.93  2964.72  2957.63  2949.31  2939.43  2928.78  2916.36  2904.96  2894.99  2885.63  2876.06  2866.63  2857.34  2848.67  2841.69  2835.16  2830.09  2826.20  2823.84  2821.94  2820.03  2817.30  2814.54  2809.95  2806.08  2802.14  2798.39  2794.25  2790.51  2787.34  2783.80  2780.68  2777.67  2774.64  2771.05  2767.77  2764.23  2760.41  2756.72  2752.93  2748.47  2743.88  2739.35  2736.28  2734.57  2732.99  2731.07  2729.45  2726.56  2723.01  2719.25  2714.17  2708.43  2698.38  2695.19  2702.67  2702.65  2698.08  2699.48  2708.32  2718.70  2729.26  2736.78  2743.00  2748.16  2751.21  2755.53  2759.14  2763.77  2769.80  2772.43  2773.12  2772.48  2775.99  2781.12  2788.22  2803.75  2833.17  2862.20  2882.21  2891.83  2894.93  2896.86  2898.56  2898.95  2901.49  2907.38  2915.53  2925.05  2936.56  2950.85  2968.26  2996.25  3043.41  3111.97  3173.50  3233.76  3277.27  3256.61  3271.87  3313.11  3391.84  3417.09  3428.75  3447.88  3463.71  3475.87  3485.84  3492.99  3496.50  3492.17  3461.53  3380.74  3353.23  3322.11  3322.57  3274.32  3238.07  3183.72  3147.22  3115.53  3080.39  3057.80  3037.48  3020.28
2890.33  2877.28  2881.36  2886.18  2882.53  2884.88  2887.63  2889.76  2888.90  2891.91  2895.11  2900.07  2906.95  2914.09  2921.85  2932.45  2944.57  2957.85  2974.13  2994.78  3018.96  3041.68  3059.27  3068.78  3072.25  3077.05  3084.13  3090.51  3094.62  3099.19  3103.78  3107.80  3113.74  3119.67  3124.26  3129.00  3133.83  3138.69  3150.26  3167.74  3203.15  3263.87  3322.25  3385.51  3445.87  3487.86  3508.67  3519.99  3524.58  3523.94  3517.66  3509.85  3498.22  3486.14  3472.60  3457.14  3440.89  3422.19  3402.27  3380.78  3358.98  3341.84  3324.48  3308.16  3293.70  3280.57  3260.66  3234.91  3217.12  3204.05  3194.76  3174.85  3156.27  3141.65  3128.16  3112.29  3088.43  3067.56  3054.92  3044.61  3033.12  3024.54  3015.59  3004.69  2993.69  2983.29  2974.47  2966.82  2957.86  2947.43  2936.04  2923.90  2913.22  2903.27  2892.61  2881.49  2871.03  2860.01  2851.53  2843.52  2837.03  2832.86  2830.01  2828.23  2826.07  2823.26  2819.84  2816.14  2812.10  2807.61  2804.13  2800.03  2796.44  2792.80  2789.06  2785.55  2782.30  2779.25  2776.31  2773.76  2771.32  2768.47  2764.76  2760.80  2756.07  2750.71  2746.07  2740.94  2735.55  2731.12  2728.86  2727.71  2724.87  2723.36  2721.17  2715.96  2710.66  2705.17  2696.89  2689.75  2688.66  2690.19  2698.86  2704.72  2710.53  2718.36  2726.59  2734.83  2738.56  2740.58  2743.88  2747.26  2751.74  2758.09  2763.09  2765.25  2767.74  2770.95  2773.96  2778.13  2785.63  2803.38  2831.27  2856.26  2876.20  2884.00  2887.67  2890.15  2891.94  2894.04  2900.70  2908.43  2917.24  2926.40  2939.02  2952.59  2971.23  2998.17  3053.74  3138.39  3175.97  3201.22  3174.03  3187.15  3219.66  3275.36  3335.76  3381.65  3445.09  3460.12  3474.07  3484.07  3491.58  3498.53  3503.91  3503.27  3483.86  3444.06  3386.82  3379.99  3354.51  3320.65  3293.89  3236.68  3189.10  3162.43  3078.38  3043.60  3024.85  3006.25
2844.53  2854.80  2864.28  2869.06  2868.06  2871.80  2876.47  2881.34  2884.52  2889.36  2895.57  2901.72  2909.54  2917.99  2928.72  2938.39  2952.55  2968.62  2985.18  3011.32  3043.52  3067.18  3083.13  3088.99  3091.15  3092.15  3095.74  3101.13  3103.37  3105.78  3108.65  3111.99  3115.05  3119.40  3124.97  3130.28  3135.54  3141.74  3153.59  3172.84  3202.47  3256.85  3317.83  3376.71  3438.70  3485.64  3506.93  3517.74  3522.03  3521.32  3516.80  3508.09  3497.39  3486.21  3472.77  3456.71  3440.40  3420.29  3398.65  3377.01  3356.45  3338.22  3318.86  3301.44  3284.53  3266.34  3244.94  3216.09  3198.54  3190.28  3182.61  3169.04  3153.30  3137.16  3121.57  3105.36  3087.45  3073.05  3061.47  3052.88  3044.45  3033.96  3022.58  3010.39  2998.48  2988.44  2979.73  2971.08  2961.77  2951.27  2940.35  2928.16  2916.95  2906.53  2895.28  2881.61  2869.62  2857.80  2848.28  2840.77  2834.23  2829.72  2826.03  2823.43  2822.50  2820.68  2818.11  2813.54  2807.72  2802.65  2797.74  2794.05  2791.18  2789.04  2786.74  2784.53  2782.51  2780.42  2777.26  2775.09  2772.94  2770.50  2767.57  2764.05  2760.13  2755.02  2749.03  2742.71  2736.61  2730.85  2725.39  2722.84  2721.42  2718.44  2715.64  2711.34  2705.51  2699.70  2693.81  2687.94  2685.44  2693.47  2700.72  2705.27  2711.24  2718.71  2724.91  2729.54  2732.02  2735.11  2737.76  2742.37  2747.59  2753.22  2755.84  2758.41  2761.87  2765.57  2771.11  2778.06  2787.25  2806.26  2828.79  2850.53  2864.97  2874.34  2878.14  2880.28  2883.41  2890.90  2901.97  2913.38  2924.59  2936.40  2948.27  2960.38  2978.18  3004.53  3051.13  3106.96  3101.66  3130.82  3141.14  3165.11  3195.35  3238.78  3296.45  3380.16  3472.92  3477.70  3468.64  3484.68  3486.55  3488.05  3485.69  3463.53  3456.58  3449.69  3420.53  3370.97  3325.95  3298.64  3267.95  3233.79  3190.18  3158.26  3097.46  3033.59  3008.00  2992.45
2839.44  2844.20  2847.65  2851.53  2856.57  2862.36  2869.34  2876.42  2883.79  2890.97  2897.94  2905.73  2914.72  2924.42  2937.19  2951.11  2968.03  2988.15  3009.65  3042.43  3084.36  3127.60  3136.94  3130.30  3117.82  3113.67  3114.64  3115.99  3113.53  3113.87  3114.95  3116.77  3119.52  3122.76  3127.25  3132.93  3139.10  3148.68  3159.57  3182.71  3210.26  3259.67  3320.60  3382.46  3437.18  3492.89  3513.28  3521.32  3522.40  3519.55  3514.66  3506.40  3496.58  3484.26  3468.17  3451.68  3434.55  3414.95  3394.11  3372.74  3352.38  3332.79  3312.93  3290.84  3270.24  3246.15  3225.41  3201.05  3188.45  3180.37  3172.70  3159.56  3142.03  3126.52  3113.02  3100.53  3089.45  3079.09  3068.85  3058.95  3049.22  3037.22  3024.78  3012.39  3001.18  2990.66  2980.32  2970.93  2961.88  2952.86  2941.24  2928.45  2918.37  2908.88  2896.62  2881.10  2867.76  2855.84  2846.40  2838.81  2831.96  2826.89  2827.14  2829.43  2828.13  2824.71  2820.29  2814.76  2807.58  2799.95  2793.53  2790.27  2788.49  2785.83  2783.11  2780.36  2778.41  2776.47  2774.89  2774.00  2772.45  2770.97  2768.76  2766.39  2762.17  2757.24  2751.67  2744.97  2738.01  2730.98  2724.99  2719.26  2715.78  2714.22  2711.28  2706.97  2701.14  2695.31  2691.00  2687.30  2688.67  2695.41  2699.16  2704.64  2710.54  2716.10  2720.29  2724.07  2727.09  2730.43  2733.63  2738.88  2743.59  2745.82  2749.70  2753.24  2757.18  2763.23  2770.43  2779.15  2790.84  2808.69  2825.41  2844.17  2854.14  2860.73  2863.53  2869.69  2878.86  2890.99  2907.23  2922.85  2936.86  2948.48  2957.45  2970.07  2987.31  3009.22  3033.78  3059.71  3081.68  3107.07  3131.30  3158.08  3187.32  3235.08  3315.68  3372.14  3436.01  3405.03  3423.45  3448.59  3441.50  3444.11  3427.53  3414.77  3403.18  3385.69  3389.60  3369.54  3317.40  3262.45  3221.55  3186.80  3142.00  3104.12  3073.19  3035.87  2999.25  2982.38
2829.77  2833.93  2839.45  2846.19  2853.22  2860.17  2867.87  2875.92  2884.24  2892.47  2900.46  2909.52  2918.99  2931.46  2945.20  2964.10  2986.71  3013.68  3038.29  3066.83  3114.72  3165.63  3193.37  3187.30  3170.64  3158.93  3143.61  3135.69  3127.46  3124.70  3124.33  3125.18  3127.70  3130.93  3132.99  3136.44  3144.20  3157.17  3171.29  3191.95  3229.30  3280.98  3332.28  3387.52  3446.31  3503.18  3524.38  3527.92  3524.42  3517.36  3511.86  3504.99  3494.41  3480.29  3465.93  3446.37  3425.29  3409.24  3390.52  3369.90  3346.65  3326.68  3306.21  3280.55  3253.88  3228.72  3208.14  3193.44  3185.07  3176.53  3164.35  3149.55  3133.70  3121.03  3109.81  3098.78  3089.15  3080.19  3071.05  3062.16  3052.60  3041.72  3029.64  3016.35  3003.48  2991.11  2981.77  2973.60  2963.39  2950.80  2940.70  2932.84  2927.57  2919.68  2910.40  2898.97  2886.36  2868.85  2852.30  2839.32  2834.80  2836.85  2837.67  2836.96  2834.24  2831.24  2827.57  2822.77  2815.09  2805.96  2798.52  2794.35  2792.10  2788.71  2785.56  2782.47  2779.08  2776.34  2774.06  2771.96  2770.34  2768.76  2767.39  2764.99  2761.28  2756.91  2751.44  2745.69  2738.57  2731.39  2723.73  2717.38  2711.76  2707.88  2705.05  2701.75  2697.34  2691.30  2690.39  2689.73  2692.40  2693.77  2697.57  2702.48  2707.90  2712.39  2716.61  2719.62  2724.11  2727.26  2731.62  2734.49  2736.69  2742.09  2745.66  2750.16  2755.13  2761.95  2769.62  2779.79  2792.42  2808.40  2823.80  2838.30  2848.40  2854.60  2860.05  2869.35  2881.50  2892.28  2912.16  2933.35  2949.59  2959.29  2965.01  2973.28  2984.03  3009.72  3036.44  3062.89  3086.98  3109.83  3133.53  3161.45  3197.96  3251.25  3303.55  3365.11  3398.78  3357.14  3347.79  3389.58  3383.55  3390.87  3373.97  3375.77  3352.00  3335.04  3332.40  3360.98  3321.31  3253.50  3198.32  3164.12  3128.05  3093.01  3062.05  3027.90  2993.97  2972.69
2827.89  2834.57  2840.41  2847.17  2853.85  2860.88  2868.79  2876.65  2885.62  2894.78  2905.16  2913.55  2924.32  2938.62  2956.46  2978.51  3006.00  3036.00  3067.05  3101.49  3143.37  3186.08  3232.45  3234.49  3226.20  3219.59  3204.56  3165.08  3145.24  3140.56  3139.89  3139.23  3139.07  3141.63  3142.29  3145.87  3155.35  3168.40  3186.74  3211.34  3259.40  3310.69  3356.63  3406.66  3455.45  3517.69  3546.47  3540.69  3529.36  3521.07  3513.72  3502.21  3489.64  3475.83  3461.68  3441.01  3416.91  3398.94  3381.25  3363.71  3338.03  3319.03  3299.55  3271.72  3243.81  3223.47  3203.88  3190.45  3182.96  3172.72  3158.32  3144.62  3133.38  3122.67  3111.51  3099.64  3088.75  3079.95  3072.78  3066.39  3058.61  3048.53  3036.00  3020.78  3007.12  2997.62  2990.84  2982.05  2970.27  2960.67  2954.59  2951.79  2951.14  2964.65  2959.03  2940.84  2923.56  2900.55  2874.35  2848.88  2848.43  2849.22  2847.85  2845.35  2843.23  2841.93  2839.62  2836.09  2828.10  2817.64  2807.02  2799.72  2794.84  2790.12  2785.90  2782.69  2779.29  2776.92  2774.73  2772.42  2770.56  2768.43  2765.47  2761.31  2756.62  2752.13  2747.87  2743.34  2737.02  2729.62  2721.98  2715.37  2708.99  2703.08  2699.18  2696.35  2692.65  2688.38  2688.74  2690.99  2693.20  2691.83  2694.92  2699.45  2705.09  2710.72  2714.80  2718.29  2722.17  2726.06  2726.41  2728.29  2734.04  2738.57  2743.67  2749.34  2756.39  2763.56  2772.89  2783.93  2797.54  2812.08  2824.47  2836.30  2846.51  2855.93  2867.06  2877.47  2887.54  2895.88  2916.22  2940.91  2955.34  2965.00  2966.68  2972.57  2985.66  3010.52  3042.65  3072.57  3095.64  3120.53  3148.52  3186.78  3227.41  3279.49  3343.68  3353.86  3354.14  3318.76  3291.65  3296.01  3289.97  3336.79  3315.27  3334.73  3302.66  3293.63  3289.85  3302.79  3294.00  3241.32  3193.22  3158.14  3125.78  3092.67  3058.80  3025.60  2994.61  2963.32
2830.55  2837.75  2843.81  2850.14  2856.27  2863.27  2871.35  2880.02  2890.33  2900.16  2913.71  2924.50  2937.39  2955.83  2975.10  2996.09  3025.05  3060.99  3094.76  3127.84  3172.74  3225.45  3265.89  3276.92  3287.12  3285.03  3268.05  3236.43  3190.22  3163.93  3162.19  3163.93  3158.45  3159.91  3160.14  3162.16  3171.16  3186.40  3211.99  3250.64  3299.25  3345.36  3389.52  3429.91  3481.51  3548.48  3573.66  3553.16  3538.76  3527.37  3516.03  3501.15  3482.90  3466.16  3451.58  3429.68  3409.35  3390.37  3370.80  3355.22  3333.09  3314.50  3295.30  3269.59  3248.78  3231.32  3208.98  3190.14  3177.85  3166.01  3152.76  3142.72  3135.35  3126.28  3113.87  3102.42  3092.41  3084.62  3077.74  3071.87  3064.64  3054.69  3041.14  3028.51  3018.53  3010.40  3003.40  2996.75  2987.64  2981.92  2979.29  2984.28  3005.40  3028.94  3026.27  3010.52  2986.01  2926.94  2883.64  2861.97  2863.04  2861.85  2858.26  2855.31  2855.20  2853.77  2854.48  2850.86  2842.99  2828.66  2815.77  2805.78  2798.25  2790.61  2784.56  2781.30  2776.35  2772.78  2770.53  2768.32  2766.28  2764.64  2761.62  2756.25  2750.84  2744.14  2740.05  2735.34  2731.27  2725.13  2718.62  2712.53  2705.72  2698.91  2692.91  2690.57  2688.58  2685.62  2686.76  2690.25  2690.05  2687.36  2691.89  2699.27  2705.31  2710.12  2714.84  2718.84  2719.94  2720.86  2723.30  2726.82  2731.58  2738.97  2746.82  2753.30  2759.26  2766.93  2776.26  2786.21  2799.19  2811.11  2822.76  2834.89  2848.20  2863.17  2879.11  2891.61  2902.80  2909.58  2924.43  2945.32  2961.87  2974.07  2972.97  2982.44  2996.41  3013.54  3045.53  3077.08  3095.19  3137.52  3183.18  3230.86  3269.53  3329.09  3315.44  3306.20  3275.12  3259.29  3245.52  3235.77  3243.10  3265.81  3269.79  3299.55  3291.27  3273.00  3258.39  3265.18  3241.38  3216.36  3197.95  3168.68  3135.67  3102.01  3071.77  3047.15  3014.09  2969.56
2832.53  2839.71  2847.37  2853.83  2860.62  2869.82  2877.89  2888.21  2900.43  2912.74  2928.00  2940.38  2955.89  2976.78  2999.97  3021.26  3049.28  3095.79  3131.20  3178.76  3223.26  3261.31  3297.82  3318.80  3333.21  3347.45  3339.23  3319.11  3282.84  3233.57  3211.49  3199.82  3185.13  3184.32  3186.40  3191.80  3211.09  3236.17  3272.19  3303.84  3342.80  3385.69  3428.19  3473.88  3532.50  3587.53  3574.52  3554.32  3542.40  3530.28  3514.96  3498.45  3475.24  3453.84  3437.93  3418.07  3400.64  3384.84  3366.88  3352.55  3331.59  3311.51  3293.39  3273.09  3253.36  3233.25  3210.93  3187.92  3170.84  3156.48  3145.02  3138.66  3133.11  3127.46  3117.82  3107.74  3098.87  3090.33  3082.66  3076.62  3068.84  3060.22  3053.47  3044.51  3033.89  3029.15  3021.88  3017.45  3013.80  3009.26  3021.07  3041.39  3072.44  3084.80  3053.84  3006.40  2954.08  2924.89  2895.18  2878.09  2877.20  2872.78  2867.28  2867.75  2869.15  2871.70  2874.34  2866.78  2853.48  2836.68  2827.70  2819.48  2810.75  2798.94  2792.32  2787.13  2781.18  2777.55  2771.82  2764.59  2759.30  2756.65  2752.16  2748.54  2743.36  2739.28  2733.19  2725.43  2722.56  2718.84  2713.08  2707.39  2700.96  2694.20  2687.65  2683.47  2682.68  2680.52  2683.70  2687.51  2683.97  2682.36  2691.19  2700.13  2706.64  2711.16  2714.34  2714.77  2717.31  2719.76  2723.55  2729.61  2735.83  2742.03  2747.68  2754.70  2761.84  2771.68  2782.92  2791.75  2801.64  2813.76  2825.07  2839.18  2858.04  2878.30  2897.43  2912.70  2926.96  2934.95  2941.86  2962.95  2980.67  2990.64  2988.84  3002.95  3016.06  3028.51  3052.77  3079.08  3107.52  3164.91  3231.96  3265.35  3293.96  3279.45  3255.96  3227.40  3209.94  3201.99  3200.65  3200.88  3214.30  3223.91  3239.11  3273.32  3274.35  3249.06  3230.16  3214.10  3199.72  3180.19  3167.85  3159.83  3150.65  3109.07  3061.70  3041.01  3022.11  2991.53
2832.34  2838.86  2848.53  2858.38  2869.49  2880.52  2891.48  2903.12  2915.66  2931.68  2949.27  2963.89  2979.70  3000.20  3023.85  3056.72  3121.90  3166.97  3200.34  3240.18  3267.27  3299.73  3330.87  3354.12  3374.91  3395.37  3411.10  3399.37  3382.75  3345.90  3299.65  3271.78  3254.90  3247.60  3251.66  3266.88  3295.57  3329.01  3357.84  3377.38  3401.90  3435.10  3479.80  3553.84  3590.88  3589.61  3571.95  3559.26  3546.82  3532.12  3518.91  3496.01  3472.43  3448.15  3430.60  3411.30  3393.44  3376.95  3363.49  3349.77  3330.74  3313.47  3297.96  3277.99  3258.26  3236.57  3211.47  3185.55  3164.85  3149.46  3141.62  3137.70  3135.02  3129.83  3121.45  3111.66  3101.20  3092.60  3086.94  3079.04  3075.02  3075.23  3070.31  3059.05  3053.08  3051.02  3047.54  3045.03  3046.47  3060.67  3076.92  3099.24  3105.96  3062.14  3007.82  2974.85  2946.53  2926.71  2902.70  2896.74  2895.10  2888.10  2884.61  2885.64  2888.08  2893.85  2894.82  2886.99  2873.03  2859.40  2852.69  2851.73  2847.21  2823.74  2811.10  2799.78  2789.18  2782.01  2774.76  2768.44  2760.90  2750.39  2742.81  2738.27  2735.22  2731.84  2728.07  2720.90  2714.34  2710.78  2707.30  2701.18  2695.73  2689.30  2683.27  2677.95  2677.43  2676.53  2679.03  2683.36  2677.77  2680.59  2691.75  2701.03  2707.46  2709.85  2711.80  2715.15  2718.95  2723.76  2728.07  2732.41  2737.09  2742.26  2748.24  2755.97  2767.15  2778.86  2792.11  2804.97  2812.38  2823.59  2844.30  2862.56  2880.47  2902.25  2921.52  2934.98  2951.40  2963.63  2978.01  2996.89  3009.30  3015.80  3015.28  3022.51  3033.18  3047.03  3063.28  3088.03  3126.07  3189.30  3230.13  3192.39  3193.75  3204.55  3189.54  3168.84  3156.20  3168.61  3181.14  3185.30  3191.03  3198.99  3209.43  3256.59  3256.11  3226.20  3202.42  3188.87  3173.10  3155.90  3139.45  3131.40  3154.99  3105.25  3049.10  3006.60  3006.81  2983.70
2839.07  2849.47  2858.00  2871.82  2886.38  2900.47  2913.97  2926.06  2940.66  2956.93  2975.09  2992.95  3007.54  3027.49  3057.99  3120.17  3186.78  3219.90  3253.20  3280.03  3305.00  3334.32  3366.96  3392.48  3416.45  3441.72  3466.25  3466.53  3457.15  3419.00  3401.07  3370.38  3348.04  3333.47  3357.82  3387.55  3412.20  3428.99  3455.01  3477.82  3494.99  3521.93  3568.03  3643.36  3623.89  3599.03  3579.32  3563.05  3548.33  3532.01  3516.40  3495.02  3471.61  3447.11  3428.76  3407.56  3386.68  3365.54  3353.17  3342.67  3330.31  3317.20  3302.78  3286.80  3268.59  3246.30  3219.64  3191.60  3167.45  3150.08  3141.68  3138.41  3135.69  3130.24  3121.98  3112.48  3103.67  3097.70  3088.49  3085.03  3089.24  3091.39  3085.99  3077.28  3073.35  3070.80  3070.88  3075.93  3103.17  3129.59  3145.95  3127.10  3085.39  3051.49  3017.81  2984.05  2951.99  2932.01  2918.27  2912.11  2913.46  2908.80  2905.81  2905.32  2905.95  2912.95  2916.77  2906.43  2899.42  2891.44  2886.55  2891.19  2882.22  2855.42  2841.98  2827.66  2812.76  2799.53  2785.50  2773.97  2759.93  2751.28  2740.21  2729.14  2724.56  2723.05  2719.95  2714.63  2708.25  2701.70  2698.91  2696.45  2690.56  2685.72  2678.99  2672.83  2670.55  2671.35  2674.08  2677.93  2672.33  2680.34  2691.46  2701.58  2705.28  2708.05  2712.50  2717.09  2721.91  2725.93  2730.64  2735.40  2741.74  2746.86  2753.97  2761.60  2777.07  2791.28  2807.24  2823.86  2835.79  2853.52  2873.51  2898.64  2921.72  2936.74  2956.68  2972.36  2986.25  2995.72  3011.47  3026.76  3035.55  3038.68  3041.02  3041.17  3047.81  3059.37  3074.91  3113.41  3163.14  3172.24  3126.92  3120.97  3143.55  3158.34  3150.68  3138.39  3133.98  3147.15  3158.76  3168.23  3172.57  3178.02  3185.72  3234.10  3238.14  3208.05  3185.90  3173.08  3157.36  3139.74  3120.24  3100.13  3097.82  3084.78  3020.22  2980.75  2952.73  2920.88
2858.64  2874.40  2887.71  2898.79  2912.64  2929.32  2942.38  2955.85  2973.59  2991.72  3009.63  3027.75  3044.74  3073.93  3125.68  3189.07  3243.78  3269.90  3303.67  3325.81  3346.74  3373.06  3405.61  3433.49  3459.73  3487.55  3514.11  3530.13  3522.67  3485.12  3485.95  3477.86  3459.98  3436.67  3451.99  3472.53  3491.07  3506.91  3539.50  3578.79  3618.68  3653.57  3685.85  3700.61  3647.28  3610.73  3583.94  3565.09  3547.31  3529.87  3511.63  3490.85  3471.21  3450.78  3432.38  3409.45  3382.16  3357.14  3345.85  3337.99  3329.03  3318.48  3306.19  3293.09  3277.11  3256.64  3232.43  3206.57  3177.68  3155.84  3144.95  3139.93  3135.54  3131.03  3124.19  3117.70  3110.42  3100.95  3095.82  3097.68  3102.46  3103.68  3099.24  3096.87  3093.20  3089.11  3091.80  3120.74  3160.86  3184.79  3161.13  3128.92  3099.73  3073.16  3049.57  3020.77  2981.56  2954.46  2938.69  2939.24  2937.30  2933.28  2930.22  2926.03  2925.30  2929.30  2934.11  2930.72  2934.36  2927.63  2922.72  2928.32  2913.64  2888.29  2876.63  2862.94  2843.66  2828.69  2812.70  2792.65  2770.64  2750.34  2738.59  2726.37  2715.70  2711.52  2709.13  2705.18  2698.71  2691.94  2689.60  2689.89  2686.23  2682.47  2674.61  2667.93  2664.62  2665.34  2667.96  2672.18  2665.67  2675.67  2688.34  2698.48  2702.19  2707.69  2711.25  2714.15  2721.48  2727.81  2734.39  2743.19  2749.71  2757.45  2768.43  2778.71  2790.11  2809.98  2828.37  2847.14  2862.24  2877.18  2902.47  2945.65  2976.22  2991.90  3000.83  3016.40  3030.34  3032.61  3043.11  3055.36  3060.94  3062.03  3066.18  3069.92  3074.79  3085.05  3108.72  3145.34  3121.28  3079.18  3079.57  3098.71  3123.05  3137.77  3138.61  3117.70  3089.94  3110.22  3134.17  3144.90  3150.28  3155.30  3166.18  3209.09  3219.12  3209.11  3182.52  3160.18  3147.00  3131.99  3110.98  3088.52  3057.85  3024.49  2999.82  2981.57  2958.55  2926.82
2897.62  2911.71  2925.57  2940.60  2960.18  2973.63  2983.15  3002.11  3026.53  3046.52  3071.25  3086.61  3114.98  3161.63  3220.51  3266.28  3299.34  3328.55  3351.78  3371.32  3392.86  3419.65  3445.71  3477.93  3508.70  3540.38  3566.65  3585.80  3592.22  3571.87  3570.11  3568.62  3568.13  3531.64  3544.00  3557.48  3570.57  3584.13  3632.33  3721.32  3765.79  3784.72  3798.02  3755.20  3697.69  3646.98  3607.26  3579.98  3558.26  3531.73  3506.03  3485.87  3470.46  3452.43  3435.62  3415.78  3391.58  3361.86  3341.68  3333.32  3326.66  3318.41  3307.95  3296.10  3283.01  3267.13  3247.06  3223.12  3197.53  3167.72  3153.16  3148.83  3145.48  3139.76  3133.57  3127.80  3116.59  3108.50  3109.32  3113.95  3115.86  3119.57  3122.46  3119.40  3117.05  3124.05  3150.86  3179.12  3204.22  3194.18  3172.34  3148.05  3116.65  3085.60  3055.89  3029.20  3001.93  2985.83  2979.79  2969.89  2961.15  2954.14  2953.09  2946.74  2946.68  2950.65  2949.80  2962.36  2973.78  2965.09  2961.34  2963.40  2947.77  2926.82  2914.37  2896.32  2879.01  2861.23  2844.69  2818.96  2792.54  2763.18  2737.10  2724.05  2712.63  2700.56  2695.84  2692.51  2687.00  2682.12  2681.07  2682.23  2679.72  2676.27  2667.99  2662.34  2657.72  2658.01  2661.09  2664.35  2659.54  2666.64  2678.32  2693.08  2699.97  2707.74  2710.98  2717.67  2722.79  2732.90  2748.37  2760.74  2770.70  2776.73  2788.77  2802.43  2816.20  2832.83  2850.00  2871.78  2889.83  2906.46  2940.81  2983.53  3026.93  3045.75  3062.02  3076.47  3093.00  3074.78  3079.16  3084.12  3087.36  3086.20  3092.78  3113.87  3126.94  3139.01  3151.90  3089.42  3051.06  3041.21  3050.20  3076.65  3112.28  3115.86  3117.03  3098.35  3057.82  3062.30  3094.99  3108.57  3115.55  3126.76  3139.69  3183.45  3200.15  3195.07  3183.02  3152.24  3137.07  3125.58  3103.49  3085.53  3055.13  3025.45  3002.47  2982.96  2964.20  2941.05
2950.90  2966.82  2988.20  3009.10  3033.19  3051.11  3064.07  3091.32  3111.30  3130.10  3147.86  3163.04  3185.52  3237.10  3289.65  3330.86  3358.65  3382.42  3404.29  3429.44  3447.59  3471.84  3495.74  3530.54  3561.34  3590.62  3616.80  3647.17  3665.90  3669.94  3664.46  3678.45  3665.15  3657.86  3676.22  3705.67  3726.68  3746.54  3793.66  3816.24  3843.63  3857.77  3817.93  3755.34  3719.39  3685.60  3651.26  3619.08  3586.49  3552.40  3514.68  3495.17  3479.99  3461.86  3441.43  3422.81  3398.81  3371.61  3346.99  3335.22  3329.20  3321.04  3310.61  3297.35  3287.59  3273.90  3257.55  3236.89  3214.02  3189.40  3177.19  3172.06  3164.25  3155.93  3146.95  3134.91  3124.05  3123.43  3126.27  3131.17  3132.75  3142.11  3143.18  3141.91  3138.52  3171.24  3210.43  3231.53  3216.20  3197.60  3177.15  3155.31  3127.68  3099.08  3072.12  3046.72  3025.85  3013.23  3001.72  2991.20  2975.77  2967.51  2969.23  2965.96  2964.47  2968.71  2968.64  3008.21  3021.03  3003.91  2997.76  2999.71  2985.23  2969.01  2950.61  2930.32  2914.27  2902.43  2877.38  2838.43  2812.70  2779.15  2749.10  2722.42  2707.49  2693.03  2682.19  2678.30  2675.33  2674.76  2673.36  2671.93  2669.69  2665.51  2656.33  2651.63  2650.23  2650.20  2651.94  2653.56  2647.84  2658.34  2666.72  2675.76  2693.35  2707.87  2717.12  2730.02  2743.76  2756.39  2766.83  2777.83  2790.50  2803.82  2816.16  2828.37  2845.92  2868.20  2877.18  2896.38  2917.25  2933.94  2965.10  3029.42  3090.53  3118.68  3127.99  3135.09  3136.97  3108.90  3108.65  3112.23  3112.91  3112.82  3139.34  3162.01  3175.57  3176.75  3094.65  3022.99  3016.20  3014.71  3026.43  3046.88  3096.02  3084.86  3074.84  3042.90  3028.92  3029.27  3047.12  3061.36  3073.17  3089.97  3114.59  3142.12  3175.55  3173.22  3165.60  3155.01  3132.82  3118.77  3099.25  3080.65  3060.18  3036.07  3013.18  2987.15  2968.43  2939.42
3022.73  3041.17  3062.21  3084.79  3115.40  3128.86  3137.24  3181.16  3197.78  3206.64  3226.18  3239.93  3257.78  3290.07  3311.26  3334.78  3323.97  3349.94  3385.02  3400.05  3482.80  3527.89  3555.16  3584.30  3604.33  3617.22  3642.95  3683.18  3715.50  3754.68  3782.23  3804.86  3827.62  3831.83  3772.82  3740.56  3734.38  3743.80  3747.31  3750.64  3769.82  3817.25  3786.32  3721.91  3683.30  3657.73  3632.10  3607.35  3582.39  3558.67  3531.34  3509.92  3492.92  3472.26  3447.90  3425.41  3400.32  3377.36  3357.36  3342.20  3332.43  3322.86  3312.42  3299.60  3288.20  3277.88  3261.62  3246.63  3231.83  3218.57  3205.16  3196.12  3186.41  3174.91  3154.90  3137.98  3133.72  3136.16  3142.83  3147.24  3153.95  3160.96  3160.23  3158.66  3174.10  3216.52  3254.42  3241.64  3220.38  3201.63  3179.56  3159.07  3138.97  3113.74  3090.03  3064.34  3045.74  3030.43  3016.41  3004.50  2990.53  2980.61  2981.04  2983.02  2979.39  2981.49  2989.72  3057.48  3064.12  3049.38  3043.95  3048.18  3028.48  3007.83  2989.47  2978.16  2964.72  2945.97  2892.77  2847.11  2823.93  2796.17  2762.01  2731.65  2708.62  2688.16  2669.20  2665.47  2666.18  2666.64  2664.09  2659.42  2658.53  2649.23  2650.77  2645.38  2641.27  2641.54  2640.89  2642.36  2635.76  2642.82  2648.55  2652.37  2675.96  2714.51  2736.99  2755.41  2768.05  2784.01  2794.40  2803.25  2816.32  2830.82  2845.53  2857.79  2875.68  2918.12  2933.78  2944.98  2955.80  2972.50  3018.08  3068.01  3122.03  3176.53  3189.19  3197.63  3172.01  3142.06  3137.62  3143.22  3144.13  3169.80  3196.77  3208.01  3206.36  3102.37  3026.47  3005.64  2995.18  2994.24  3000.33  3024.92  3064.50  3047.90  3008.61  3002.21  3002.08  3002.05  3009.14  3027.85  3042.68  3069.65  3096.14  3118.53  3140.70  3141.63  3135.84  3129.95  3130.75  3124.04  3098.22  3083.02  3062.93  3040.46  3018.34  2997.43  2975.24  2937.63
3111.75  3124.21  3130.84  3154.20  3175.61  3193.73  3187.17  3167.92  3186.46  3205.78  3225.61  3260.02  3282.10  3277.18  3255.96  3273.90  3274.48  3311.23  3329.50  3390.09  3471.22  3570.71  3600.72  3604.49  3613.22  3620.73  3633.75  3641.93  3687.43  3729.03  3749.60  3772.77  3805.49  3814.55  3731.39  3684.18  3670.15  3676.30  3683.28  3694.29  3709.35  3788.32  3787.55  3724.81  3680.73  3655.18  3629.45  3609.55  3586.26  3560.18  3536.85  3512.33  3488.73  3471.51  3447.43  3424.79  3401.70  3384.46  3366.90  3350.62  3337.98  3327.41  3316.97  3302.82  3288.36  3275.03  3264.45  3257.14  3250.30  3243.11  3230.18  3218.68  3203.56  3180.66  3157.39  3145.09  3143.89  3148.55  3158.68  3164.11  3175.68  3175.61  3173.23  3172.83  3210.78  3258.55  3273.68  3247.89  3225.42  3206.30  3185.62  3166.60  3146.25  3122.96  3100.40  3075.67  3056.60  3040.80  3025.56  3011.49  3001.42  2996.86  3002.81  3002.03  2999.58  3003.55  3021.16  3094.34  3116.65  3104.57  3099.96  3091.04  3063.44  3043.46  3027.08  2993.67  2961.55  2928.59  2882.39  2853.58  2829.47  2802.67  2767.09  2735.55  2714.65  2690.55  2667.56  2652.46  2654.10  2654.72  2654.18  2648.99  2645.20  2641.76  2634.11  2633.22  2630.93  2631.86  2631.53  2630.68  2623.67  2621.56  2625.82  2634.04  2662.68  2718.87  2747.48  2773.21  2794.73  2812.53  2820.18  2831.18  2846.24  2863.51  2887.39  2906.98  2911.28  2937.04  2987.85  2992.05  3011.22  3026.72  3058.53  3101.09  3142.79  3194.32  3237.26  3248.01  3195.86  3173.53  3168.79  3171.35  3188.36  3232.28  3251.53  3252.82  3163.89  3059.20  3016.12  2993.16  2986.63  2978.11  2977.26  2989.96  3034.50  3014.10  2982.45  2976.20  2976.96  2977.57  2980.07  2994.20  3021.08  3049.09  3071.25  3084.34  3098.83  3089.03  3080.41  3094.28  3127.52  3159.62  3135.27  3108.48  3087.58  3057.88  3037.05  3019.67  2987.56  2946.73
3169.45  3192.01  3201.42  3219.75  3212.30  3184.12  3130.59  3108.97  3124.43  3141.15  3175.73  3214.05  3236.47  3224.02  3206.78  3224.59  3237.65  3266.12  3316.95  3396.48  3473.69  3535.01  3560.35  3552.03  3565.71  3571.92  3578.71  3591.53  3635.78  3674.24  3705.93  3738.11  3763.01  3764.31  3682.82  3638.75  3616.22  3618.80  3628.35  3640.78  3661.74  3719.27  3759.82  3754.86  3708.17  3670.54  3645.21  3625.76  3605.23  3583.51  3560.13  3513.83  3485.40  3472.11  3458.99  3434.55  3412.69  3398.72  3382.51  3362.26  3348.45  3339.90  3342.09  3334.52  3321.33  3300.36  3287.14  3279.96  3271.06  3261.74  3247.53  3230.05  3206.84  3191.63  3177.84  3162.26  3158.98  3162.59  3170.88  3183.75  3196.80  3201.67  3194.84  3201.53  3247.03  3288.89  3280.86  3252.98  3231.02  3213.22  3194.49  3175.11  3156.10  3134.94  3114.27  3091.47  3072.63  3057.15  3037.92  3019.05  3012.29  3018.44  3028.00  3026.03  3023.76  3029.43  3060.91  3128.55  3163.03  3161.73  3150.30  3126.54  3098.36  3074.24  3019.65  2953.52  2927.74  2906.25  2878.80  2854.03  2833.13  2810.02  2783.23  2750.64  2723.19  2697.52  2673.78  2651.84  2641.86  2640.74  2635.31  2629.64  2629.45  2629.98  2630.97  2623.95  2621.61  2620.86  2619.61  2619.28  2610.46  2608.49  2609.70  2614.76  2651.46  2712.59  2740.63  2766.43  2801.96  2835.75  2858.16  2873.73  2895.99  2930.11  2960.57  2979.31  2983.74  2988.06  3014.61  3036.54  3059.89  3075.73  3095.23  3131.33  3169.11  3223.88  3279.01  3285.22  3233.17  3204.98  3198.26  3202.27  3222.49  3276.88  3231.78  3193.51  3110.82  3041.95  3004.75  2983.59  2975.21  2960.38  2953.57  2957.93  2993.81  3002.20  2966.12  2954.57  2954.32  2953.72  2955.81  2956.70  2998.65  3012.14  3019.72  3023.42  3027.82  3034.26  3057.55  3085.28  3122.48  3172.08  3188.50  3155.80  3139.98  3098.95  3083.84  3049.99  2982.52  2913.37
3141.50  3159.30  3178.29  3203.49  3172.11  3102.41  3065.61  3064.39  3071.38  3080.43  3112.32  3163.68  3186.04  3168.86  3161.82  3173.12  3201.50  3266.15  3331.55  3388.69  3447.04  3492.41  3504.76  3494.33  3493.62  3517.20  3522.42  3548.03  3589.93  3642.32  3694.35  3719.14  3725.13  3704.66  3648.41  3599.73  3582.62  3577.82  3585.31  3596.28  3615.32  3671.49  3712.69  3776.49  3755.15  3720.47  3679.78  3652.71  3626.39  3613.62  3599.70  3562.53  3518.28  3489.25  3471.68  3456.09  3440.28  3441.10  3445.75  3437.59  3419.94  3404.23  3387.37  3367.99  3346.81  3325.47  3310.14  3299.98  3294.82  3280.28  3257.20  3233.30  3226.38  3224.14  3214.40  3199.71  3191.59  3186.13  3190.71  3201.74  3210.77  3216.72  3226.10  3259.20  3299.63  3302.36  3277.97  3255.47  3237.17  3221.21  3204.26  3186.72  3168.93  3144.80  3121.37  3100.52  3081.73  3067.28  3050.49  3036.97  3037.10  3043.18  3046.32  3044.57  3044.08  3052.42  3091.97  3144.34  3194.95  3199.07  3160.25  3128.67  3097.49  3035.50  2982.49  2945.61  2921.20  2898.01  2875.36  2853.49  2829.93  2803.82  2780.74  2757.96  2736.14  2707.60  2675.76  2654.17  2634.11  2620.85  2612.37  2611.71  2611.04  2611.87  2605.01  2609.24  2609.00  2609.81  2609.14  2607.53  2600.00  2593.03  2591.58  2596.55  2645.56  2706.38  2733.18  2765.10  2807.24  2853.67  2902.20  2922.41  2948.80  2990.74  3030.92  3049.13  3057.93  3048.45  3044.97  3055.88  3078.83  3100.89  3117.85  3139.09  3166.68  3219.18  3276.12  3321.52  3280.22  3243.34  3227.84  3228.38  3244.16  3272.20  3216.93  3169.26  3072.15  3021.59  2994.36  2972.03  2961.98  2945.58  2938.60  2931.07  2935.18  2969.51  2956.88  2934.75  2932.78  2932.39  2931.60  2928.74  2955.74  2968.78  2968.89  2976.43  2995.09  3019.88  3049.52  3084.97  3127.11  3169.07  3211.13  3201.33  3150.35  3104.60  3062.48  3028.15  2952.41  2911.70
3094.58  3120.65  3140.13  3161.04  3127.80  3045.91  3028.81  3031.54  3035.96  3041.18  3050.79  3094.71  3119.79  3109.03  3110.01  3135.98  3183.34  3242.57  3318.20  3376.20  3430.45  3446.20  3458.70  3439.98  3436.57  3456.80  3480.32  3516.65  3557.37  3609.40  3670.40  3691.80  3693.80  3661.82  3609.41  3577.98  3570.53  3561.14  3557.78  3559.91  3570.46  3603.99  3672.48  3727.18  3755.50  3770.48  3737.87  3715.63  3683.89  3647.12  3624.81  3602.59  3575.65  3538.43  3515.34  3502.72  3512.25  3527.67  3525.53  3480.98  3433.99  3416.11  3395.26  3378.00  3360.41  3349.55  3338.50  3324.26  3308.43  3291.23  3268.86  3256.39  3253.45  3250.61  3238.53  3225.58  3217.66  3210.99  3214.57  3222.28  3229.15  3231.70  3256.84  3304.53  3339.65  3302.32  3275.54  3258.14  3243.25  3229.36  3214.63  3195.44  3177.87  3154.18  3132.73  3112.40  3097.72  3083.02  3070.81  3062.69  3066.82  3063.53  3061.71  3065.03  3066.97  3078.85  3128.51  3176.46  3231.22  3218.40  3160.70  3090.91  3049.65  3007.36  2978.09  2949.76  2924.07  2898.24  2873.72  2854.08  2827.51  2802.82  2778.76  2758.95  2738.85  2712.64  2674.05  2643.94  2626.67  2600.36  2592.32  2593.01  2594.30  2593.68  2603.89  2599.75  2600.98  2599.03  2599.55  2595.84  2591.10  2586.72  2586.79  2592.84  2643.88  2693.07  2726.24  2758.15  2807.56  2857.18  2922.69  2973.41  3012.78  3044.77  3100.49  3111.32  3123.09  3114.83  3102.81  3095.81  3108.27  3127.36  3143.22  3163.86  3188.02  3240.10  3302.36  3352.91  3330.52  3295.83  3265.25  3253.72  3254.79  3204.07  3119.14  3098.28  3032.62  2995.48  2974.91  2959.86  2949.23  2933.14  2920.09  2912.24  2904.10  2908.00  2924.47  2914.74  2913.95  2912.36  2909.37  2904.16  2913.76  2928.30  2940.77  2956.06  2980.21  3009.90  3048.42  3100.28  3138.82  3173.43  3208.03  3203.33  3137.78  3081.55  3041.32  2996.66  2955.51  2928.63
3041.27  3073.99  3096.38  3113.85  3064.96  3013.04  3000.52  3003.92  3007.95  3010.88  3013.34  3034.51  3060.42  3064.54  3076.78  3108.24  3158.88  3217.82  3292.03  3368.05  3389.47  3397.88  3404.08  3386.69  3393.04  3416.67  3452.06  3499.90  3549.09  3599.49  3641.13  3662.41  3666.28  3627.06  3585.20  3568.86  3562.78  3555.09  3548.16  3541.78  3545.05  3566.22  3626.89  3684.74  3724.23  3763.23  3792.28  3776.17  3756.80  3732.66  3710.15  3669.34  3636.11  3613.32  3597.54  3595.93  3605.22  3593.18  3535.74  3458.93  3436.74  3417.02  3397.68  3385.69  3376.25  3367.30  3356.12  3339.18  3318.19  3302.83  3293.77  3281.86  3277.22  3271.74  3256.35  3238.88  3230.92  3233.17  3240.69  3246.49  3254.65  3251.75  3291.11  3342.82  3346.20  3306.64  3275.97  3263.36  3252.28  3238.09  3223.21  3205.76  3185.79  3162.75  3141.76  3127.74  3115.24  3102.26  3092.37  3089.18  3087.61  3082.44  3079.10  3082.66  3087.67  3104.80  3156.81  3222.30  3267.92  3208.94  3127.99  3073.11  3036.11  3001.44  2971.34  2950.49  2933.06  2910.88  2877.64  2849.84  2824.70  2803.77  2781.89  2762.95  2735.71  2708.37  2674.40  2640.27  2619.16  2590.68  2576.59  2575.62  2579.17  2581.14  2579.03  2588.69  2588.36  2589.82  2592.51  2589.93  2583.92  2579.51  2580.04  2583.95  2639.89  2679.42  2715.69  2747.08  2785.24  2830.98  2880.40  2924.77  2965.02  3004.60  3055.96  3088.99  3121.95  3133.57  3161.11  3163.45  3173.60  3185.40  3188.69  3198.87  3223.87  3266.14  3308.32  3360.63  3369.73  3332.72  3296.84  3272.94  3231.04  3138.70  3074.99  3035.49  3008.45  2977.10  2960.25  2942.60  2931.06  2915.05  2898.12  2889.40  2885.96  2882.60  2886.66  2893.97  2893.90  2892.09  2888.52  2883.49  2887.73  2904.44  2922.83  2943.15  2969.62  3006.18  3033.85  3083.79  3104.12  3131.48  3176.18  3188.00  3120.48  3078.08  3033.42  2996.94  2971.88  2951.16
2992.78  3016.96  3045.09  3061.74  3036.80  2989.60  2977.74  2982.33  2988.26  2989.62  2989.17  3001.43  3016.35  3030.90  3046.71  3086.55  3150.29  3218.85  3284.20  3334.22  3343.70  3345.89  3343.40  3344.14  3360.39  3387.05  3432.57  3495.80  3542.72  3589.72  3628.89  3644.83  3627.23  3593.84  3559.99  3551.28  3547.51  3545.10  3542.35  3531.43  3527.82  3536.39  3573.68  3632.63  3700.54  3733.51  3817.01  3804.32  3786.05  3772.13  3751.07  3721.18  3708.34  3693.15  3684.17  3675.46  3609.92  3556.20  3494.35  3465.56  3449.18  3428.01  3409.82  3397.83  3389.33  3379.58  3366.99  3348.45  3332.04  3320.20  3306.99  3303.62  3290.84  3283.43  3275.43  3261.06  3251.57  3255.99  3266.52  3266.49  3270.09  3277.14  3327.90  3360.71  3338.68  3312.44  3290.91  3277.55  3266.68  3253.65  3234.91  3217.82  3197.55  3174.53  3157.17  3147.14  3132.83  3122.07  3116.10  3112.03  3108.23  3104.30  3101.31  3101.65  3111.41  3142.65  3204.34  3272.30  3240.10  3149.45  3099.08  3060.90  3021.69  2994.51  2967.74  2951.06  2927.68  2903.89  2875.36  2849.68  2824.41  2805.21  2779.89  2758.03  2730.81  2707.79  2679.58  2641.86  2610.49  2580.66  2559.53  2560.90  2564.48  2563.31  2573.00  2568.55  2576.69  2580.36  2581.97  2580.41  2575.97  2571.05  2572.13  2575.47  2624.49  2664.75  2699.64  2731.96  2762.91  2797.43  2828.83  2859.15  2900.32  2936.71  3004.82  3044.83  3062.78  3099.03  3168.75  3220.13  3246.86  3249.22  3258.86  3252.65  3272.06  3313.91  3355.62  3397.40  3408.75  3366.18  3302.47  3241.27  3173.23  3100.84  3058.76  3020.33  2996.36  2971.94  2948.35  2928.13  2911.47  2894.91  2881.83  2870.72  2869.81  2868.95  2868.60  2876.49  2873.50  2873.15  2870.30  2867.18  2873.45  2887.13  2911.13  2941.04  2975.92  3015.70  3034.03  3036.59  3050.78  3094.35  3145.75  3168.35  3121.28  3078.92  3044.57  3017.77  2995.92  2980.34
2943.73  2965.91  2993.50  3018.26  3012.20  2966.48  2956.64  2965.96  2969.03  2967.04  2970.07  2978.55  2987.45  2998.55  3033.73  3101.69  3165.01  3230.43  3281.88  3296.24  3297.01  3297.82  3295.07  3310.02  3332.32  3367.36  3416.41  3478.64  3539.02  3590.78  3609.57  3613.25  3575.38  3546.01  3538.23  3529.39  3529.10  3527.81  3529.45  3517.68  3513.68  3521.03  3548.43  3594.85  3657.12  3765.62  3779.24  3795.22  3810.43  3819.80  3803.52  3779.72  3777.74  3777.57  3748.17  3687.93  3602.88  3531.96  3494.84  3473.10  3455.26  3438.18  3422.55  3407.32  3396.89  3383.78  3368.70  3354.42  3339.07  3326.42  3311.22  3299.61  3299.45  3302.97  3297.80  3286.75  3276.78  3278.87  3279.96  3278.52  3279.33  3309.61  3364.85  3353.49  3333.34  3318.67  3306.45  3293.49  3281.70  3265.51  3247.26  3230.44  3209.07  3191.37  3177.25  3166.50  3150.42  3140.89  3134.83  3128.39  3123.54  3120.47  3124.66  3127.68  3144.40  3175.46  3228.78  3272.20  3194.14  3117.17  3082.53  3047.84  3016.14  2992.28  2968.85  2942.12  2919.07  2897.49  2871.38  2845.58  2828.57  2803.40  2780.25  2753.75  2726.15  2706.45  2677.34  2641.81  2605.67  2573.92  2544.68  2546.33  2552.53  2551.71  2553.51  2560.72  2564.34  2569.16  2572.07  2570.60  2567.95  2563.55  2559.66  2559.96  2610.74  2650.11  2682.55  2717.40  2745.71  2778.96  2809.34  2840.68  2875.02  2913.09  2960.24  2998.47  3056.04  3102.08  3144.39  3210.93  3273.80  3318.05  3326.92  3317.11  3332.11  3364.03  3409.01  3431.62  3427.17  3410.14  3332.51  3249.63  3180.51  3094.51  3043.16  3013.62  2993.74  2979.59  2933.01  2908.76  2899.51  2885.90  2870.30  2856.37  2853.77  2856.73  2852.87  2860.27  2856.09  2855.67  2853.17  2851.80  2857.78  2872.43  2917.32  2956.81  2984.59  2994.77  3001.35  3003.58  3017.34  3053.59  3112.46  3127.05  3126.80  3096.98  3070.43  3048.54  3028.47  3007.38
2896.74  2920.14  2949.39  2983.91  2971.96  2931.10  2931.22  2937.58  2939.78  2945.15  2950.17  2949.50  2953.55  2973.01  3036.38  3101.44  3168.73  3223.24  3239.01  3243.22  3244.96  3247.12  3261.28  3283.83  3317.67  3368.47  3428.93  3500.44  3529.60  3550.15  3567.00  3580.42  3540.80  3519.09  3513.02  3505.59  3507.63  3508.66  3508.69  3504.32  3500.42  3509.03  3530.28  3590.56  3652.82  3710.38  3722.27  3736.66  3761.18  3792.18  3822.85  3839.47  3838.41  3787.03  3714.19  3650.64  3586.79  3534.24  3503.39  3482.18  3460.41  3445.11  3431.69  3418.27  3404.02  3387.93  3372.92  3362.10  3353.40  3343.12  3313.13  3322.22  3330.33  3328.11  3322.49  3310.74  3302.43  3301.41  3295.82  3289.36  3295.28  3346.36  3374.89  3353.21  3335.47  3324.17  3315.07  3303.94  3291.35  3276.03  3259.37  3242.39  3225.63  3211.12  3192.49  3177.87  3166.22  3154.18  3149.93  3144.19  3141.97  3138.30  3144.43  3165.91  3184.64  3211.70  3267.49  3245.72  3165.93  3107.46  3074.71  3044.99  3019.61  2991.38  2965.76  2940.01  2915.66  2892.53  2862.93  2851.31  2838.51  2812.64  2785.03  2755.06  2725.83  2700.36  2673.19  2639.70  2600.68  2569.66  2541.51  2539.77  2544.04  2542.88  2542.72  2545.81  2550.42  2557.47  2562.28  2559.95  2556.37  2550.37  2545.09  2542.25  2587.65  2636.06  2659.17  2696.54  2732.62  2765.34  2807.02  2840.73  2875.02  2915.95  2982.34  3030.72  3101.01  3154.34  3174.65  3225.84  3273.00  3311.69  3337.84  3356.56  3384.88  3407.72  3433.99  3412.70  3360.53  3317.70  3283.03  3243.02  3168.22  3082.11  3020.85  3000.36  2982.21  2966.33  2936.55  2901.59  2884.91  2870.65  2851.18  2836.83  2836.53  2841.88  2839.38  2837.75  2833.32  2838.92  2836.54  2834.56  2839.51  2858.20  2889.87  2917.16  2930.36  2946.53  2965.07  2984.46  3002.11  3021.02  3054.24  3093.34  3132.93  3128.40  3106.13  3086.50  3064.66  3044.31
2863.96  2873.74  2913.72  2958.47  2922.01  2901.77  2907.62  2914.00  2916.35  2923.50  2921.44  2914.59  2919.84  2972.38  3039.18  3094.55  3154.49  3171.67  3186.87  3197.62  3200.57  3213.31  3235.56  3264.97  3318.38  3379.82  3435.78  3481.94  3480.38  3497.30  3518.49  3556.59  3515.38  3497.85  3490.68  3486.64  3486.53  3490.71  3489.55  3487.29  3486.59  3490.32  3501.25  3568.85  3632.80  3659.83  3664.79  3679.41  3708.98  3744.63  3769.28  3796.81  3814.01  3782.78  3720.96  3645.35  3589.93  3546.63  3514.72  3492.40  3470.74  3456.42  3443.20  3431.02  3419.11  3403.94  3386.64  3383.95  3396.63  3401.92  3380.02  3366.09  3356.49  3347.30  3335.52  3326.08  3322.47  3315.06  3311.86  3313.34  3341.95  3382.74  3379.55  3362.94  3344.80  3333.29  3327.27  3319.16  3306.40  3292.12  3276.87  3254.88  3237.22  3221.15  3204.84  3192.22  3180.36  3174.39  3166.64  3159.39  3158.64  3155.95  3165.72  3191.70  3224.50  3276.18  3277.69  3214.57  3167.68  3119.45  3080.38  3051.86  3019.34  2991.32  2962.39  2938.25  2916.26  2885.99  2865.31  2855.11  2829.60  2808.39  2785.36  2760.68  2727.99  2695.12  2664.53  2631.26  2588.86  2557.14  2531.49  2533.86  2538.69  2535.61  2533.12  2532.31  2535.93  2545.40  2550.81  2551.32  2548.18  2540.26  2531.77  2533.23  2568.13  2634.93  2683.57  2725.81  2759.09  2809.89  2830.72  2857.83  2905.49  2967.44  3028.68  3086.57  3136.78  3185.04  3208.74  3229.01  3247.68  3280.28  3301.15  3314.56  3329.72  3349.40  3384.98  3395.44  3314.20  3254.10  3205.64  3207.80  3178.18  3093.88  3007.70  2979.90  2964.10  2949.45  2922.06  2889.95  2865.37  2849.19  2827.80  2813.32  2815.20  2823.63  2820.96  2809.47  2812.25  2822.35  2819.89  2817.03  2826.48  2846.93  2879.74  2897.34  2918.24  2937.57  2955.28  2974.62  2996.88  3017.72  3054.53  3097.04  3138.37  3162.87  3136.90  3105.25  3059.42  3020.25
2838.28  2860.53  2890.86  2924.22  2898.28  2884.53  2880.99  2891.18  2896.42  2895.65  2877.44  2869.77  2900.65  2970.13  3036.16  3091.03  3107.34  3117.76  3130.02  3148.63  3167.66  3190.10  3216.75  3259.82  3327.59  3395.50  3441.19  3439.98  3423.79  3419.39  3455.52  3517.73  3493.85  3474.27  3469.52  3465.62  3468.31  3472.58  3474.53  3470.82  3469.14  3470.81  3482.23  3528.24  3597.55  3596.22  3595.64  3611.32  3647.14  3690.58  3724.99  3753.03  3776.95  3753.30  3712.76  3649.91  3600.24  3559.44  3525.76  3500.71  3482.92  3468.57  3456.19  3445.05  3432.51  3419.61  3408.76  3418.04  3432.26  3408.99  3393.91  3381.68  3370.65  3361.23  3351.90  3346.03  3341.97  3338.19  3333.66  3358.30  3400.18  3398.15  3385.56  3374.77  3358.57  3344.53  3336.97  3328.30  3317.42  3302.54  3289.01  3269.22  3247.19  3230.89  3219.37  3206.56  3195.58  3187.89  3181.27  3175.09  3173.82  3175.69  3184.56  3224.56  3272.57  3272.89  3230.04  3196.61  3166.62  3123.48  3097.53  3070.89  3036.11  3000.93  2962.76  2931.25  2906.50  2887.70  2864.99  2847.03  2827.08  2802.85  2777.41  2751.10  2721.24  2685.03  2653.99  2619.99  2580.19  2543.82  2523.36  2525.28  2529.06  2527.37  2522.45  2522.22  2526.01  2534.17  2540.35  2539.89  2536.10  2530.18  2521.12  2518.44  2557.82  2640.98  2689.51  2729.06  2788.82  2865.78  2887.94  2914.07  2966.69  3019.65  3049.10  3081.44  3122.59  3157.32  3161.45  3171.53  3200.07  3234.01  3256.51  3269.28  3246.42  3274.48  3337.68  3379.60  3272.53  3195.91  3168.05  3149.92  3132.93  3084.18  2999.69  2969.08  2949.25  2925.98  2902.26  2861.96  2839.29  2817.52  2800.16  2785.01  2787.32  2798.64  2801.22  2791.77  2800.28  2808.41  2802.47  2801.11  2811.91  2839.31  2871.67  2886.89  2908.70  2926.37  2943.28  2965.55  2991.49  3018.02  3058.57  3107.77  3131.77  3149.54  3129.67  3071.82  3024.53  2989.42
2820.54  2846.37  2870.08  2897.93  2880.14  2869.56  2862.38  2858.03  2852.98  2849.16  2836.65  2847.18  2908.90  2968.26  3025.32  3070.96  3079.58  3091.26  3104.79  3123.53  3143.83  3168.17  3202.13  3262.33  3342.57  3402.74  3416.75  3406.41  3376.42  3372.49  3397.70  3475.13  3469.71  3446.00  3440.80  3444.61  3444.73  3445.42  3454.28  3452.16  3447.29  3445.32  3458.64  3493.02  3549.25  3552.27  3551.65  3555.88  3582.75  3643.60  3688.18  3703.85  3716.72  3712.78  3717.07  3680.55  3625.95  3583.90  3542.98  3514.05  3497.83  3482.27  3472.76  3463.94  3446.99  3431.51  3447.89  3463.86  3445.45  3425.77  3414.22  3399.77  3383.59  3373.35  3368.57  3364.28  3355.28  3353.28  3363.60  3407.94  3433.28  3417.99  3403.06  3389.34  3372.99  3356.49  3347.27  3338.04  3325.53  3308.73  3294.32  3277.61  3261.85  3244.82  3233.53  3219.22  3205.50  3200.59  3194.11  3190.70  3190.67  3199.57  3229.37  3275.18  3258.60  3226.78  3210.11  3184.38  3149.30  3119.27  3103.39  3074.67  3031.99  3002.65  2971.07  2937.06  2910.31  2885.07  2864.86  2842.67  2822.47  2797.40  2774.24  2750.61  2729.73  2698.78  2655.89  2620.66  2580.42  2546.03  2524.95  2518.32  2518.30  2514.78  2513.78  2512.78  2516.90  2526.22  2529.04  2526.95  2522.90  2517.18  2508.53  2502.09  2521.08  2620.01  2672.11  2712.79  2760.10  2844.66  2903.00  2934.71  2958.49  2970.49  3017.60  3070.01  3105.53  3109.98  3119.82  3123.26  3136.99  3174.20  3210.03  3219.05  3212.33  3218.54  3273.98  3317.49  3250.89  3166.08  3130.43  3104.72  3108.61  3085.22  3001.70  2958.13  2933.91  2906.45  2877.86  2846.82  2815.87  2791.24  2774.57  2764.97  2758.31  2769.31  2777.70  2779.40  2790.43  2795.57  2789.43  2787.10  2798.50  2825.85  2852.68  2866.74  2893.48  2915.25  2943.58  2973.29  2997.80  3028.73  3063.25  3090.96  3102.22  3128.65  3103.01  3044.68  3007.42  2974.94
2798.35  2821.39  2844.20  2860.14  2857.10  2840.11  2825.98  2819.42  2807.51  2805.88  2802.30  2847.76  2900.22  2961.13  3020.23  3042.80  3055.51  3068.03  3083.51  3101.58  3118.93  3143.70  3202.99  3281.24  3360.70  3372.74  3374.19  3353.19  3333.01  3341.10  3375.40  3448.45  3431.53  3409.68  3405.35  3410.29  3418.69  3413.65  3421.47  3427.51  3423.47  3422.03  3434.80  3472.79  3523.45  3523.17  3522.61  3522.82  3540.74  3595.00  3642.61  3643.73  3657.97  3664.12  3729.63  3714.40  3669.77  3629.98  3586.62  3555.55  3538.33  3540.68  3523.34  3504.02  3488.89  3486.92  3489.87  3480.28  3460.24  3445.53  3435.65  3422.57  3394.43  3375.26  3380.87  3377.59  3373.87  3382.07  3418.31  3451.87  3450.09  3437.23  3420.53  3405.21  3389.01  3372.58  3362.00  3349.49  3332.62  3311.07  3294.73  3287.23  3281.77  3268.54  3252.84  3245.64  3236.41  3229.75  3221.90  3221.76  3231.62  3246.95  3294.89  3290.20  3244.02  3225.68  3203.51  3177.53  3148.23  3113.44  3087.62  3057.04  3025.44  2998.94  2969.33  2943.84  2920.99  2894.31  2870.20  2844.56  2823.32  2802.65  2779.56  2756.27  2735.12  2703.55  2663.14  2631.11  2591.22  2550.33  2525.60  2511.34  2504.17  2499.74  2501.55  2503.16  2507.09  2512.19  2516.41  2515.72  2509.66  2504.34  2494.92  2487.58  2496.53  2590.36  2654.43  2691.16  2743.04  2803.92  2853.35  2873.98  2913.96  2960.56  3031.83  3056.18  3062.80  3080.25  3086.30  3087.83  3094.01  3127.08  3160.88  3178.90  3191.88  3190.11  3232.02  3268.23  3223.49  3153.07  3107.73  3084.72  3071.40  3082.50  3005.70  2953.82  2920.66  2891.73  2858.53  2828.26  2803.65  2782.93  2766.97  2755.25  2747.14  2744.48  2755.58  2766.83  2778.53  2781.38  2778.48  2775.15  2785.82  2809.18  2820.50  2838.78  2876.60  2911.08  2939.26  2944.95  2964.78  3003.28  3030.81  3051.57  3088.09  3109.47  3078.95  3033.77  3000.50  2967.07
2762.18  2787.43  2813.72  2829.33  2831.61  2810.54  2790.20  2777.72  2752.66  2758.92  2792.77  2839.38  2881.08  2940.08  2991.09  3015.05  3031.56  3046.61  3062.88  3078.45  3096.04  3144.84  3232.22  3302.60  3347.80  3325.06  3307.11  3292.39  3297.38  3314.81  3376.88  3412.62  3386.91  3376.12  3378.39  3378.42  3383.48  3388.02  3388.15  3395.19  3400.69  3401.12  3412.27  3462.42  3501.96  3503.18  3495.81  3492.49  3504.72  3549.84  3595.12  3581.23  3590.74  3612.54  3668.25  3726.22  3720.81  3694.82  3651.15  3624.48  3623.18  3604.01  3584.98  3578.30  3575.86  3552.55  3522.63  3493.32  3475.80  3463.15  3454.09  3443.45  3414.14  3398.77  3411.05  3416.97  3431.60  3451.07  3476.76  3481.27  3470.28  3453.93  3439.76  3423.43  3411.95  3395.77  3376.61  3360.31  3345.34  3325.01  3327.88  3325.60  3318.11  3300.84  3288.79  3276.40  3267.29  3268.70  3273.04  3281.74  3295.21  3309.33  3320.33  3264.53  3240.74  3215.70  3192.45  3169.06  3141.59  3110.24  3080.18  3055.09  3028.56  3003.10  2977.50  2944.98  2922.80  2902.14  2877.32  2855.19  2829.99  2809.84  2787.05  2769.26  2742.18  2713.18  2677.32  2635.90  2600.46  2555.91  2517.42  2500.01  2494.36  2492.43  2494.74  2496.45  2497.38  2500.29  2503.11  2501.55  2496.60  2491.21  2481.11  2475.87  2481.54  2545.44  2633.07  2670.47  2708.24  2753.55  2805.61  2847.55  2897.15  2943.64  2992.66  3017.90  3024.11  3042.98  3044.12  3057.64  3063.38  3086.37  3119.41  3165.38  3169.62  3163.31  3210.05  3281.91  3271.09  3165.28  3092.03  3065.98  3046.93  3033.37  3010.95  2969.91  2924.33  2885.10  2852.72  2820.62  2796.83  2776.95  2760.15  2746.91  2738.68  2729.53  2737.67  2745.18  2754.99  2762.64  2766.40  2762.70  2772.78  2788.84  2788.35  2804.97  2841.29  2879.12  2909.18  2912.39  2931.41  2974.35  3000.24  3027.88  3067.52  3086.90  3072.68  3029.02  3002.16  2970.20
2725.06  2753.73  2778.12  2799.25  2802.22  2779.49  2749.51  2730.22  2724.50  2736.90  2777.88  2822.89  2873.15  2922.08  2960.22  2994.93  3006.60  3025.20  3041.95  3057.32  3084.93  3174.20  3253.15  3313.60  3311.59  3280.99  3253.40  3253.61  3271.60  3303.74  3367.59  3350.49  3337.28  3346.39  3351.61  3354.68  3352.79  3359.62  3362.85  3372.55  3378.77  3381.68  3384.62  3435.35  3476.27  3477.68  3465.55  3463.96  3478.12  3501.85  3538.98  3549.09  3554.06  3573.99  3617.07  3695.55  3721.13  3717.30  3709.97  3694.23  3681.37  3659.85  3654.13  3650.66  3639.97  3604.29  3561.78  3524.97  3498.94  3482.35  3476.87  3469.08  3495.56  3500.51  3487.14  3494.95  3508.41  3528.03  3515.58  3502.32  3489.75  3473.51  3457.93  3442.45  3430.83  3417.49  3399.45  3383.66  3381.94  3368.39  3357.22  3349.01  3338.98  3329.02  3314.16  3311.01  3316.94  3329.01  3349.66  3341.08  3336.55  3340.07  3280.78  3254.34  3229.15  3202.17  3177.72  3155.90  3131.95  3103.23  3072.36  3054.25  3032.66  3009.70  2977.52  2950.08  2928.84  2906.48  2884.11  2861.43  2841.03  2819.36  2793.53  2767.28  2741.79  2715.40  2685.01  2646.88  2608.09  2560.42  2517.78  2491.10  2490.70  2490.01  2490.51  2489.16  2489.71  2492.53  2492.82  2489.47  2484.14  2479.13  2473.01  2467.47  2466.13  2510.86  2600.65  2655.27  2687.51  2737.64  2788.43  2826.57  2886.72  2925.98  2954.68  2958.84  2954.45  2978.23  2997.86  3010.04  3008.95  3052.78  3115.74  3128.27  3139.93  3141.59  3174.30  3265.14  3295.13  3193.93  3098.84  3051.85  3030.19  3004.10  2996.47  2971.34  2919.75  2887.97  2860.27  2829.19  2796.95  2771.84  2753.50  2739.40  2729.73  2721.14  2714.83  2719.47  2728.38  2737.74  2745.99  2744.42  2751.47  2763.95  2761.52  2766.26  2797.40  2836.95  2859.72  2867.30  2902.48  2957.47  2995.45  3014.10  3042.72  3063.07  3078.96  3042.81  3007.92  2968.14
2689.68  2714.79  2743.80  2763.13  2763.25  2746.95  2717.62  2699.49  2703.53  2712.15  2744.09  2781.22  2843.30  2892.53  2940.38  2968.15  2988.11  3005.44  3021.42  3039.65  3079.56  3183.94  3266.89  3292.75  3256.65  3221.87  3211.57  3223.90  3254.90  3309.65  3314.13  3296.20  3307.64  3318.61  3322.33  3326.15  3328.46  3331.85  3338.60  3340.02  3342.23  3339.43  3348.55  3387.49  3447.93  3444.86  3436.02  3435.75  3449.90  3470.16  3507.98  3527.08  3533.84  3539.33  3574.77  3632.45  3680.61  3722.40  3737.91  3737.63  3732.34  3722.72  3717.81  3722.16  3696.33  3655.35  3614.99  3579.72  3549.99  3516.75  3514.89  3532.53  3569.58  3566.82  3547.76  3555.93  3572.25  3561.46  3530.07  3517.50  3504.11  3488.71  3471.74  3460.27  3448.67  3435.97  3427.44  3418.95  3411.62  3399.91  3383.43  3369.54  3360.62  3356.48  3369.53  3383.86  3397.27  3394.56  3388.89  3379.82  3369.85  3322.55  3263.12  3240.51  3215.71  3187.15  3162.26  3139.97  3119.16  3095.40  3071.55  3053.35  3032.67  3010.59  2982.93  2957.38  2931.75  2910.60  2891.15  2872.57  2847.65  2818.75  2789.29  2763.24  2740.47  2716.72  2689.26  2655.36  2613.73  2567.24  2519.06  2488.23  2484.32  2484.95  2485.88  2483.56  2482.59  2481.59  2481.22  2478.42  2473.10  2469.43  2467.54  2461.11  2458.81  2486.19  2560.85  2633.72  2680.64  2737.21  2801.82  2844.40  2878.84  2893.79  2885.05  2872.20  2880.12  2901.93  2930.08  2951.80  2966.50  2998.45  3055.95  3094.22  3112.39  3118.50  3153.83  3251.34  3295.82  3243.57  3142.08  3075.47  3018.74  2989.12  2967.69  2931.89  2914.81  2887.24  2864.62  2835.00  2802.95  2771.30  2749.27  2734.58  2723.47  2714.11  2704.55  2699.13  2705.15  2713.45  2719.58  2719.43  2723.88  2729.40  2731.36  2733.07  2756.54  2790.98  2818.18  2847.22  2875.21  2917.33  2953.17  2979.15  3004.01  3036.56  3059.73  3066.67  3019.23  2980.10
2655.55  2683.58  2707.70  2725.22  2724.93  2715.53  2689.27  2679.02  2684.40  2692.02  2722.21  2755.14  2814.14  2877.09  2927.49  2949.51  2971.44  2988.30  3008.07  3037.92  3096.33  3202.15  3262.12  3238.59  3198.91  3174.29  3181.12  3196.05  3248.93  3307.88  3266.76  3265.79  3277.16  3292.20  3296.06  3299.44  3303.86  3308.10  3315.47  3311.97  3311.66  3312.77  3325.52  3358.76  3420.03  3404.26  3400.68  3405.65  3423.30  3449.42  3488.21  3505.80  3508.81  3515.53  3540.05  3589.58  3647.88  3707.44  3764.80  3794.13  3793.12  3788.34  3780.64  3784.58  3746.57  3707.96  3659.76  3627.87  3601.61  3568.23  3562.93  3585.71  3606.76  3614.18  3610.44  3618.09  3608.16  3567.58  3544.32  3531.77  3517.74  3503.09  3488.80  3476.08  3467.99  3456.05  3450.30  3446.33  3433.84  3415.39  3401.05  3392.47  3387.69  3408.07  3442.60  3448.32  3440.03  3426.52  3413.23  3400.94  3372.23  3291.78  3247.79  3222.76  3199.14  3176.50  3156.14  3130.20  3108.42  3089.31  3073.49  3057.80  3038.55  3012.43  2988.24  2963.07  2936.94  2917.51  2895.80  2869.85  2842.23  2815.27  2787.94  2763.35  2741.73  2716.32  2686.64  2651.80  2626.44  2574.97  2524.74  2485.60  2476.11  2480.88  2482.41  2477.93  2476.03  2474.32  2471.97  2469.36  2465.29  2461.36  2461.56  2457.51  2455.61  2463.89  2564.28  2622.60  2667.82  2716.54  2773.64  2807.61  2827.38  2823.00  2831.05  2840.68  2856.71  2879.73  2902.51  2926.53  2950.43  2978.22  3029.19  3068.40  3085.10  3100.78  3154.17  3244.43  3290.38  3249.09  3188.78  3128.25  3025.26  2993.06  2961.23  2936.89  2911.85  2884.80  2859.26  2834.04  2808.42  2777.44  2750.55  2733.14  2717.90  2705.67  2698.67  2686.81  2686.28  2687.27  2691.95  2694.25  2696.39  2698.86  2701.04  2705.57  2729.95  2755.29  2784.42  2819.34  2849.48  2890.87  2917.94  2941.02  2959.80  2996.55  3026.48  3055.28  3042.87  2991.74
2630.81  2653.54  2676.28  2691.20  2699.15  2692.69  2669.28  2663.83  2667.47  2680.39  2707.78  2766.02  2828.57  2874.57  2902.74  2930.62  2951.72  2973.69  3012.70  3070.12  3116.64  3185.81  3214.72  3169.37  3145.12  3144.31  3155.00  3169.23  3228.45  3269.52  3232.30  3236.72  3251.05  3268.55  3271.05  3278.91  3280.51  3282.72  3289.27  3288.12  3290.89  3295.10  3304.27  3340.01  3395.55  3373.66  3368.05  3381.25  3400.13  3436.11  3472.53  3486.34  3489.11  3499.50  3521.06  3562.83  3620.47  3677.43  3739.90  3850.93  3862.86  3858.43  3855.79  3822.81  3775.00  3737.71  3712.58  3686.16  3656.98  3637.67  3629.60  3640.03  3656.74  3670.65  3668.92  3657.64  3615.60  3580.14  3558.37  3543.78  3531.00  3517.82  3506.47  3493.68  3487.91  3485.17  3491.19  3495.20  3482.00  3456.04  3435.14  3428.45  3438.13  3475.23  3476.94  3473.60  3462.61  3445.47  3426.90  3384.11  3316.19  3275.84  3241.90  3212.01  3187.87  3168.45  3148.85  3123.80  3099.71  3089.05  3078.38  3059.25  3039.91  3009.63  2986.86  2966.27  2944.55  2919.60  2890.26  2862.90  2839.42  2813.32  2782.81  2757.84  2742.42  2717.62  2688.53  2659.58  2628.23  2583.72  2529.63  2486.52  2469.13  2474.38  2473.86  2472.08  2469.55  2467.38  2464.62  2461.39  2457.54  2456.45  2456.59  2452.77  2452.50  2450.59  2520.38  2607.45  2651.11  2697.19  2737.20  2761.07  2770.13  2776.04  2796.05  2817.48  2838.74  2861.58  2883.99  2910.54  2942.47  2985.30  3023.80  3053.05  3068.20  3095.47  3151.52  3240.62  3250.55  3204.36  3166.22  3114.79  3047.47  2996.20  2975.65  2946.02  2914.87  2883.49  2857.83  2836.46  2812.50  2781.11  2751.88  2732.05  2714.93  2699.57  2689.80  2681.93  2676.84  2674.15  2672.31  2674.96  2675.32  2675.90  2675.71  2682.56  2701.85  2721.38  2754.57  2788.55  2843.90  2882.28  2907.02  2925.33  2941.25  2967.01  2996.82  3028.00  3043.94  2999.38
2618.97  2628.87  2650.20  2662.99  2667.14  2666.75  2659.08  2654.19  2656.82  2670.00  2700.59  2758.92  2818.28  2835.52  2872.31  2903.85  2931.14  2965.58  3043.62  3107.57  3167.36  3197.67  3152.62  3116.88  3110.59  3119.24  3128.84  3146.76  3215.60  3210.24  3204.60  3212.26  3229.97  3236.50  3247.18  3256.74  3258.35  3259.65  3268.38  3271.47  3275.51  3276.58  3278.85  3311.42  3357.88  3330.87  3341.37  3361.38  3384.97  3429.52  3458.04  3465.38  3470.29  3482.22  3497.62  3529.04  3584.70  3635.59  3685.26  3741.35  3866.33  3876.53  3891.06  3868.38  3837.75  3817.87  3782.20  3739.47  3719.75  3705.47  3696.95  3701.02  3709.17  3703.38  3688.33  3666.00  3625.71  3592.35  3570.55  3556.51  3545.38  3535.05  3526.32  3518.80  3527.19  3545.68  3537.55  3523.82  3513.27  3498.11  3482.82  3480.03  3492.32  3497.64  3495.41  3490.76  3480.57  3460.06  3420.61  3331.73  3296.32  3265.66  3239.45  3211.19  3177.04  3152.96  3134.86  3107.95  3089.35  3077.20  3068.12  3045.16  3027.11  3006.74  2984.16  2968.26  2944.47  2915.95  2885.68  2856.94  2835.28  2809.50  2785.11  2761.86  2741.78  2717.07  2692.07  2662.45  2630.78  2594.29  2546.97  2486.09  2463.59  2468.12  2468.47  2465.51  2462.25  2460.07  2457.53  2455.44  2451.93  2450.86  2451.71  2450.56  2449.14  2453.99  2479.20  2578.07  2630.53  2665.08  2690.10  2713.48  2731.94  2751.24  2774.14  2798.61  2821.96  2845.73  2872.81  2901.95  2933.69  2985.48  3017.03  3034.60  3060.68  3105.84  3170.12  3223.73  3200.36  3152.15  3133.98  3112.43  3076.86  3048.78  3010.38  2969.90  2936.18  2903.28  2864.86  2840.92  2814.61  2783.31  2749.92  2724.95  2708.73  2693.02  2682.98  2678.08  2674.20  2670.13  2664.28  2660.28  2660.75  2659.00  2659.77  2665.10  2680.18  2697.53  2719.51  2764.09  2825.32  2861.55  2886.56  2903.65  2918.42  2940.50  2972.15  3002.93  3036.25  3003.94
2616.68  2618.20  2625.65  2635.91  2638.81  2643.85  2644.96  2647.25  2657.04  2674.03  2696.95  2730.36  2778.07  2800.76  2844.23  2877.95  2913.42  2972.81  3046.31  3108.67  3153.97  3155.61  3122.26  3094.67  3091.35  3098.53  3105.05  3122.33  3179.95  3168.94  3180.11  3185.01  3207.69  3211.61  3222.86  3232.40  3242.45  3245.87  3255.19  3257.01  3253.80  3251.75  3252.24  3287.19  3308.38  3304.53  3316.25  3336.52  3369.88  3423.50  3439.95  3447.70  3452.95  3463.55  3477.04  3493.82  3540.89  3599.57  3651.46  3709.16  3783.07  3836.54  3877.37  3886.42  3871.23  3856.26  3830.64  3804.57  3784.08  3759.12  3746.11  3731.54  3716.93  3704.96  3691.20  3670.45  3635.38  3604.98  3583.00  3569.16  3561.05  3554.91  3556.15  3566.35  3571.59  3566.50  3554.53  3541.17  3534.04  3518.69  3509.72  3510.63  3515.67  3514.26  3510.49  3506.05  3498.07  3474.08  3415.78  3328.74  3278.91  3249.33  3228.20  3210.21  3171.89  3137.61  3118.20  3100.23  3087.85  3063.46  3046.59  3030.42  3012.90  2997.45  2986.87  2966.56  2942.19  2911.71  2887.97  2857.01  2838.16  2814.55  2787.97  2755.68  2741.26  2718.36  2691.66  2660.83  2628.18  2597.88  2557.90  2493.98  2460.85  2461.79  2461.13  2460.06  2456.03  2453.57  2450.78  2449.66  2447.39  2445.82  2448.38  2449.27  2448.13  2450.14  2477.74  2563.92  2596.14  2630.30  2656.58  2678.29  2704.14  2729.47  2759.16  2784.66  2813.05  2841.74  2870.07  2903.16  2940.70  2973.20  2997.53  3021.93  3057.07  3125.31  3171.93  3247.82  3146.23  3126.37  3111.10  3097.53  3092.19  3076.76  3031.60  2985.50  2951.01  2915.22  2887.08  2860.97  2831.78  2783.75  2746.55  2720.91  2704.00  2687.58  2679.55  2676.27  2673.18  2670.50  2665.95  2657.74  2651.81  2648.83  2647.55  2649.23  2663.18  2675.67  2698.12  2741.41  2791.77  2820.70  2848.23  2867.06  2887.00  2914.02  2947.53  2982.39  3022.04  3026.39
2614.39  2614.75  2617.30  2618.95  2620.23  2618.31  2625.13  2640.12  2662.73  2683.61  2702.28  2726.38  2754.99  2786.50  2823.12  2865.24  2910.87  2987.26  3049.53  3103.66  3121.48  3114.72  3104.35  3071.61  3073.69  3080.52  3085.70  3093.71  3128.59  3132.70  3149.53  3148.89  3175.16  3185.05  3198.20  3213.89  3225.61  3231.92  3237.81  3236.00  3230.64  3223.00  3226.58  3259.75  3272.70  3280.99  3290.99  3316.56  3370.08  3408.29  3419.97  3428.99  3437.01  3448.43  3458.25  3466.19  3494.78  3544.85  3618.24  3686.74  3761.36  3803.97  3863.08  3882.70  3876.28  3859.36  3829.86  3800.88  3779.30  3760.91  3737.17  3710.08  3696.73  3690.16  3683.48  3670.94  3643.43  3612.70  3596.11  3589.82  3590.63  3589.20  3595.85  3597.41  3579.70  3566.28  3541.09  3494.55  3476.97  3503.82  3513.19  3504.56  3517.41  3523.03  3520.05  3517.16  3509.38  3477.01  3429.49  3377.55  3290.89  3231.71  3207.20  3201.57  3159.70  3124.11  3108.55  3094.84  3084.61  3061.82  3041.57  3014.34  2995.62  2985.26  2972.64  2957.90  2938.89  2904.32  2883.21  2853.45  2839.62  2815.74  2787.30  2755.76  2737.95  2716.43  2696.03  2664.86  2632.22  2602.26  2575.80  2521.26  2463.03  2453.52  2454.97  2450.39  2448.78  2447.79  2445.33  2444.05  2442.01  2440.85  2444.31  2445.79  2445.41  2445.89  2472.29  2546.00  2579.90  2607.04  2632.97  2660.25  2690.26  2722.50  2756.42  2794.84  2819.10  2844.10  2874.82  2901.56  2935.16  2956.76  2985.68  3020.66  3060.24  3114.32  3195.56  3221.61  3152.86  3127.91  3107.33  3097.11  3081.32  3060.77  3030.35  2990.03  2959.23  2937.92  2925.30  2892.19  2839.14  2788.03  2752.24  2725.26  2705.88  2687.12  2678.79  2677.01  2677.08  2676.58  2669.51  2659.97  2652.05  2644.59  2638.30  2634.63  2644.40  2652.32  2671.79  2710.78  2755.77  2791.85  2820.35  2846.60  2871.75  2897.85  2933.16  2965.90  3003.10  3031.12
2613.15  2611.48  2613.89  2610.94  2612.93  2610.00  2617.38  2635.83  2660.84  2683.08  2700.12  2719.01  2743.96  2780.89  2833.55  2869.74  2919.44  2992.07  3050.01  3087.81  3080.55  3088.64  3072.01  3048.14  3052.40  3059.57  3061.87  3061.90  3083.33  3101.90  3115.37  3122.43  3149.20  3165.56  3182.18  3192.83  3200.19  3209.32  3216.75  3216.82  3209.35  3196.34  3204.33  3238.16  3258.23  3260.69  3268.46  3310.07  3363.45  3388.84  3405.35  3413.59  3424.44  3434.76  3441.68  3451.35  3471.45  3508.94  3580.94  3660.58  3721.72  3778.01  3848.14  3884.28  3878.51  3856.38  3830.40  3801.92  3776.60  3749.26  3695.01  3672.91  3666.74  3667.52  3672.24  3664.21  3638.69  3613.44  3594.11  3581.75  3578.31  3579.53  3577.54  3567.38  3558.58  3537.43  3463.41  3435.29  3418.21  3405.36  3399.65  3408.02  3442.20  3492.09  3495.05  3478.73  3462.05  3434.42  3380.35  3316.18  3277.05  3229.73  3192.10  3163.47  3135.66  3112.61  3101.90  3088.12  3067.51  3052.45  3037.80  3008.36  2979.80  2969.22  2954.89  2945.64  2920.18  2887.29  2866.39  2850.06  2830.24  2814.43  2783.81  2752.81  2735.97  2715.62  2693.67  2663.64  2636.47  2602.05  2574.82  2539.49  2477.16  2445.09  2446.93  2446.32  2443.68  2441.85  2439.69  2438.34  2437.61  2436.04  2439.96  2442.32  2441.77  2442.08  2468.86  2521.83  2553.56  2587.84  2634.05  2669.81  2700.83  2731.40  2765.24  2800.12  2822.58  2844.80  2868.50  2891.67  2918.67  2946.41  2987.22  3030.36  3074.60  3133.81  3214.70  3224.19  3175.50  3132.26  3109.13  3091.40  3074.78  3056.87  3036.12  3007.78  2987.32  2970.90  2943.85  2906.43  2855.60  2790.98  2759.63  2728.82  2708.90  2693.79  2683.82  2680.07  2681.84  2680.11  2673.53  2664.17  2654.12  2644.82  2632.45  2623.75  2625.85  2630.62  2646.86  2684.02  2724.79  2759.29  2800.65  2828.33  2855.38  2881.57  2908.38  2938.90  2975.98  3007.75
2613.13  2609.87  2609.22  2609.70  2608.60  2609.87  2615.88  2630.82  2657.19  2676.87  2691.87  2709.54  2737.72  2787.35  2834.20  2872.47  2926.93  2990.16  3042.78  3057.35  3038.33  3038.50  3024.47  3022.84  3030.90  3030.82  3029.82  3037.38  3056.94  3081.33  3087.78  3103.50  3128.93  3144.88  3159.57  3170.76  3173.75  3179.83  3182.22  3185.36  3182.83  3173.87  3185.38  3219.97  3239.39  3238.70  3244.15  3293.45  3337.72  3370.27  3388.40  3399.22  3411.08  3419.81  3428.43  3437.55  3452.65  3490.64  3558.32  3642.76  3708.31  3754.97  3800.30  3883.82  3868.34  3844.64  3821.08  3797.29  3768.57  3719.56  3679.35  3661.44  3649.93  3648.90  3656.29  3643.02  3611.85  3577.14  3573.11  3561.92  3544.99  3545.21  3541.41  3534.34  3519.45  3489.54  3443.96  3427.33  3413.54  3402.00  3390.82  3379.72  3373.51  3403.93  3464.18  3456.48  3424.80  3397.18  3314.04  3274.94  3260.68  3236.69  3199.87  3152.13  3124.32  3105.16  3088.05  3076.16  3055.95  3035.07  3017.86  2995.43  2974.34  2954.20  2934.32  2915.39  2895.49  2870.64  2855.07  2842.11  2824.17  2802.01  2774.37  2752.87  2731.93  2711.36  2687.81  2661.51  2632.25  2600.22  2570.90  2538.95  2485.70  2442.03  2440.49  2439.28  2438.37  2436.13  2433.64  2432.90  2432.76  2431.17  2435.38  2438.60  2438.55  2442.01  2463.22  2509.73  2562.55  2616.13  2654.84  2687.99  2718.39  2747.14  2777.41  2802.77  2825.02  2846.56  2868.57  2890.85  2913.89  2954.51  3004.82  3047.09  3090.74  3155.88  3233.63  3239.53  3206.96  3167.61  3109.48  3083.25  3065.39  3049.65  3036.97  3020.92  3027.92  3011.30  2962.40  2914.85  2875.25  2810.24  2760.63  2730.97  2705.84  2698.02  2690.97  2685.97  2684.23  2681.05  2674.67  2666.58  2655.95  2643.52  2629.40  2616.50  2611.96  2612.48  2626.17  2659.25  2701.38  2747.55  2781.10  2811.62  2840.25  2866.11  2887.86  2910.73  2948.92  2995.10
2614.48  2611.44  2608.25  2608.30  2607.24  2610.05  2616.57  2628.52  2647.28  2667.61  2684.07  2710.53  2748.66  2791.40  2832.81  2875.49  2934.30  2993.70  3033.89  3016.87  2994.11  2986.82  2985.32  2997.15  3004.74  3001.02  3002.55  3015.20  3039.05  3052.66  3063.09  3083.28  3108.86  3125.76  3139.32  3143.67  3151.31  3155.09  3154.15  3156.49  3155.43  3157.13  3167.04  3198.57  3215.89  3217.64  3226.52  3259.30  3312.52  3349.39  3367.86  3380.08  3394.41  3407.26  3417.07  3424.57  3434.00  3462.20  3533.12  3625.67  3670.28  3754.50  3819.52  3834.59  3839.14  3824.37  3802.43  3781.39  3756.72  3721.61  3682.73  3652.89  3632.66  3627.96  3624.72  3606.77  3557.71  3506.18  3494.11  3489.97  3485.22  3506.35  3510.24  3505.55  3495.14  3472.99  3427.70  3409.30  3397.60  3387.57  3379.26  3374.80  3371.58  3363.95  3388.15  3419.78  3409.23  3350.24  3275.07  3251.74  3250.58  3218.74  3186.12  3128.51  3105.83  3094.39  3080.91  3066.90  3043.47  3016.40  3002.14  2985.82  2961.91  2943.38  2921.31  2896.89  2877.15  2856.45  2839.11  2825.09  2804.06  2782.07  2760.62  2742.85  2719.64  2698.95  2679.45  2654.41  2627.29  2596.99  2566.90  2540.76  2494.37  2440.56  2434.30  2433.88  2432.75  2430.22  2427.31  2426.78  2426.17  2425.76  2430.02  2432.98  2434.17  2434.01  2446.30  2520.97  2582.85  2620.01  2652.15  2686.72  2724.07  2761.85  2787.95  2808.55  2830.72  2851.63  2877.76  2904.77  2932.93  2992.19  3053.21  3113.72  3147.43  3175.95  3253.43  3272.23  3222.57  3165.18  3120.80  3081.53  3057.72  3040.27  3024.35  3011.25  3003.32  3022.95  2993.20  2940.72  2883.16  2822.92  2763.68  2734.40  2708.55  2695.05  2689.64  2683.85  2679.82  2678.83  2674.61  2667.97  2655.88  2645.37  2632.70  2619.33  2602.93  2596.64  2608.17  2626.84  2672.90  2716.68  2750.91  2793.85  2820.37  2847.25  2870.27  2889.42  2921.38  2965.70
2615.66  2612.31  2609.69  2606.05  2606.68  2611.26  2616.33  2622.49  2636.52  2657.74  2681.29  2715.87  2752.58  2785.85  2823.67  2883.05  2941.51  2997.10  3007.10  2971.95  2953.68  2952.34  2960.34  2972.03  2982.06  2977.79  2982.67  2996.94  3018.44  3023.01  3041.20  3064.77  3088.29  3102.19  3109.32  3117.51  3123.90  3126.96  3132.76  3139.08  3137.45  3137.01  3144.18  3172.85  3197.70  3204.77  3211.20  3252.25  3285.61  3318.20  3347.10  3355.98  3372.20  3392.78  3405.03  3412.86  3424.85  3449.20  3507.53  3604.58  3677.49  3751.85  3761.44  3774.79  3800.42  3808.95  3786.82  3764.46  3744.76  3728.03  3689.24  3639.83  3611.99  3605.06  3594.89  3555.90  3511.31  3482.78  3458.96  3439.43  3426.51  3420.04  3442.66  3476.97  3475.73  3459.16  3408.97  3386.62  3377.82  3371.25  3367.39  3364.95  3363.13  3359.38  3350.40  3340.19  3385.22  3339.43  3258.75  3228.33  3209.19  3177.32  3162.49  3126.05  3090.95  3080.59  3066.34  3044.64  3023.98  3003.72  2986.76  2971.76  2949.05  2929.78  2904.78  2882.40  2867.69  2850.68  2833.46  2815.99  2797.74  2775.28  2755.70  2737.87  2715.39  2695.82  2674.22  2649.76  2621.11  2591.17  2560.79  2533.64  2495.50  2447.57  2428.59  2428.18  2427.09  2424.09  2421.86  2420.20  2419.53  2418.91  2423.99  2428.93  2430.01  2427.93  2438.74  2517.85  2591.64  2629.22  2661.57  2702.54  2735.67  2767.33  2804.13  2838.11  2858.21  2877.41  2899.86  2930.30  2969.87  3027.89  3095.05  3154.06  3208.08  3244.42  3248.98  3237.69  3220.57  3181.22  3156.82  3084.45  3049.40  3026.68  3002.58  2984.53  2977.81  2982.29  3002.75  2945.03  2885.22  2822.20  2772.75  2738.03  2714.06  2697.38  2684.83  2681.10  2675.37  2673.84  2671.58  2661.27  2649.59  2640.19  2624.00  2602.30  2588.20  2584.02  2594.52  2614.43  2642.30  2683.81  2728.15  2780.22  2806.18  2841.11  2865.38  2891.11  2923.20  2966.35
2614.47  2611.12  2609.18  2607.03  2604.66  2608.82  2612.40  2616.11  2625.73  2650.62  2683.71  2715.38  2753.83  2787.17  2822.62  2879.46  2933.29  2966.73  2974.28  2942.59  2926.46  2926.55  2935.47  2945.40  2950.22  2952.54  2962.30  2983.14  2986.12  3002.52  3027.80  3045.86  3065.31  3074.39  3082.06  3080.45  3077.85  3101.08  3116.07  3123.78  3123.95  3121.77  3130.76  3155.32  3179.83  3184.10  3197.67  3244.01  3267.73  3289.66  3314.35  3327.80  3351.07  3376.60  3392.35  3402.16  3416.43  3445.96  3503.02  3571.79  3686.09  3704.62  3696.64  3718.68  3754.31  3791.06  3783.16  3753.88  3730.46  3707.61  3645.36  3593.85  3586.55  3583.21  3563.27  3520.64  3489.93  3462.83  3438.56  3418.09  3402.04  3389.04  3378.47  3402.04  3447.82  3445.06  3397.09  3361.97  3358.34  3359.62  3359.92  3358.41  3355.76  3349.02  3338.28  3322.30  3297.34  3288.32  3259.66  3221.92  3186.22  3157.85  3143.15  3123.01  3082.75  3066.49  3052.53  3029.65  3006.68  2983.52  2961.89  2949.79  2934.86  2918.72  2896.12  2872.23  2858.28  2842.28  2825.17  2803.74  2783.24  2764.77  2746.92  2732.91  2713.84  2693.79  2672.63  2648.51  2615.39  2586.12  2552.80  2520.41  2489.80  2449.09  2420.45  2421.44  2421.23  2418.63  2415.05  2412.68  2413.18  2411.51  2417.03  2422.72  2423.82  2420.80  2427.64  2506.45  2595.59  2638.71  2667.86  2710.90  2755.50  2791.30  2825.25  2866.72  2905.22  2949.72  2946.53  2972.93  3016.97  3055.00  3108.59  3189.00  3222.41  3230.65  3221.03  3205.57  3198.82  3202.22  3190.39  3099.64  3049.23  3015.47  2988.16  2970.81  2958.60  2949.42  2955.50  2933.14  2890.03  2844.95  2774.95  2724.33  2708.97  2694.56  2679.72  2675.85  2671.34  2664.34  2661.50  2652.02  2639.74  2628.66  2609.47  2587.52  2576.08  2576.03  2589.87  2611.99  2635.80  2667.17  2710.15  2761.80  2811.19  2832.14  2856.25  2893.73  2932.94  2946.09
2610.89  2611.82  2609.20  2606.25  2603.89  2603.88  2606.93  2610.64  2617.10  2641.97  2675.97  2712.30  2751.71  2777.35  2810.37  2861.45  2905.57  2927.15  2931.18  2914.32  2903.35  2903.33  2910.68  2915.97  2920.07  2926.43  2943.01  2959.65  2960.96  2985.12  3008.58  3023.36  3035.81  3044.32  3047.11  3049.73  3050.41  3069.95  3090.19  3095.65  3101.98  3106.85  3120.88  3144.89  3159.17  3160.95  3183.78  3232.72  3253.28  3270.84  3282.57  3303.50  3335.69  3360.81  3371.55  3380.63  3396.90  3434.95  3483.68  3588.11  3612.16  3637.85  3640.54  3665.82  3705.42  3751.59  3786.80  3748.93  3711.62  3669.36  3602.99  3577.18  3564.78  3555.94  3537.34  3512.30  3479.55  3454.98  3431.52  3407.31  3388.35  3370.93  3361.77  3354.07  3353.93  3357.15  3343.05  3334.75  3336.85  3341.99  3348.00  3348.16  3343.68  3334.57  3323.49  3308.84  3292.16  3271.32  3255.50  3227.22  3182.90  3148.93  3122.97  3099.21  3075.40  3053.26  3036.97  3018.15  2985.43  2967.80  2944.18  2928.92  2909.26  2900.28  2890.52  2872.66  2852.42  2825.89  2804.51  2789.23  2771.88  2749.37  2735.22  2717.89  2705.23  2687.66  2663.15  2637.96  2610.94  2579.32  2544.41  2510.60  2483.87  2449.94  2415.79  2414.80  2414.70  2412.70  2408.38  2405.57  2405.50  2404.64  2410.54  2416.64  2418.84  2415.75  2427.80  2494.63  2580.99  2622.01  2650.42  2685.65  2740.65  2785.58  2832.64  2888.93  2939.61  2990.14  3010.27  3047.15  3079.15  3115.59  3143.59  3188.30  3214.72  3203.75  3191.12  3177.72  3173.68  3174.93  3151.46  3108.45  3081.10  3011.82  2982.41  2961.51  2936.72  2917.18  2906.25  2879.33  2853.28  2819.61  2758.98  2714.96  2693.51  2671.56  2661.99  2656.63  2643.76  2633.34  2623.86  2621.15  2621.00  2616.65  2608.04  2585.65  2568.69  2569.53  2579.68  2597.83  2619.80  2643.59  2687.82  2730.15  2765.35  2790.35  2846.53  2892.62  2914.88  2903.04
2611.90  2609.32  2609.03  2607.04  2604.62  2602.27  2601.35  2603.33  2610.59  2633.97  2670.45  2707.71  2739.49  2764.40  2791.28  2832.99  2866.97  2887.84  2887.20  2885.28  2884.38  2881.80  2890.16  2894.30  2899.95  2904.34  2926.21  2927.16  2937.19  2959.25  2986.22  3005.62  3011.43  3016.96  3021.25  3024.51  3031.15  3047.00  3058.65  3068.39  3078.62  3089.68  3106.97  3130.86  3141.48  3144.49  3168.68  3215.85  3238.25  3257.54  3267.97  3294.06  3322.68  3341.78  3351.17  3362.22  3385.44  3447.18  3534.80  3538.82  3533.58  3561.84  3587.58  3623.35  3663.89  3702.88  3761.68  3760.98  3694.35  3641.22  3600.74  3576.84  3557.20  3539.58  3523.94  3502.82  3473.55  3448.98  3427.63  3398.12  3372.11  3355.28  3346.15  3340.13  3335.59  3329.72  3321.61  3316.60  3315.58  3316.61  3324.46  3329.15  3327.12  3319.55  3309.32  3296.79  3283.34  3268.70  3253.36  3227.17  3186.43  3145.02  3111.30  3094.99  3077.03  3051.55  3032.99  3007.31  2979.19  2962.30  2937.55  2917.47  2900.16  2884.43  2866.09  2850.77  2840.59  2811.45  2783.58  2773.74  2758.26  2738.80  2718.76  2701.29  2685.75  2667.02  2650.43  2625.89  2598.67  2570.63  2536.48  2508.75  2477.76  2441.71  2408.92  2407.57  2409.30  2407.09  2403.31  2397.99  2397.89  2396.89  2403.45  2409.57  2411.53  2410.88  2436.20  2506.47  2568.53  2604.00  2631.28  2664.16  2711.28  2769.12  2813.31  2870.31  2916.09  2950.32  2993.95  3038.66  3091.19  3137.70  3185.89  3195.51  3175.68  3171.80  3163.20  3154.27  3154.55  3151.12  3112.32  3082.65  3065.43  3034.05  2978.22  2951.90  2926.66  2897.88  2875.14  2835.64  2808.18  2789.11  2756.76  2718.17  2685.95  2656.91  2634.53  2621.78  2608.62  2595.26  2583.82  2577.18  2581.95  2590.35  2592.43  2577.45  2560.51  2554.20  2560.96  2578.03  2600.26  2624.10  2666.53  2705.02  2746.78  2785.32  2848.65  2885.22  2874.94  2860.65
2611.94  2610.96  2606.89  2604.93  2603.62  2601.89  2599.06  2597.33  2601.84  2622.54  2662.67  2698.47  2724.64  2753.86  2778.20  2810.38  2834.91  2844.54  2851.75  2863.78  2865.18  2864.96  2868.30  2875.19  2879.20  2884.52  2898.86  2898.28  2917.20  2944.17  2968.95  2987.16  2992.68  2996.73  2997.20  2998.55  3007.27  3017.03  3030.00  3039.07  3055.93  3069.26  3082.15  3097.44  3118.99  3130.26  3158.31  3199.78  3224.78  3243.84  3252.99  3283.88  3301.84  3319.27  3333.59  3350.15  3380.00  3494.89  3513.80  3507.35  3508.48  3521.47  3543.54  3584.50  3636.29  3677.34  3733.42  3795.43  3695.66  3632.86  3597.20  3572.47  3548.94  3530.88  3508.82  3488.33  3466.12  3443.45  3417.18  3386.78  3361.04  3343.14  3334.53  3332.72  3329.65  3323.23  3314.62  3305.90  3299.82  3293.81  3294.23  3302.58  3305.10  3301.52  3293.78  3283.61  3271.91  3257.65  3239.68  3213.60  3179.98  3132.45  3098.53  3085.30  3072.33  3051.00  3030.27  3019.78  2982.15  2946.71  2930.84  2916.82  2898.49  2875.24  2853.60  2832.36  2816.93  2801.73  2773.86  2752.88  2742.95  2714.33  2696.95  2687.86  2669.07  2651.99  2635.75  2612.57  2583.41  2559.15  2525.20  2500.66  2469.86  2434.78  2403.38  2395.26  2402.99  2401.57  2397.78  2391.89  2390.38  2389.30  2394.70  2401.39  2402.14  2404.05  2415.68  2501.57  2552.00  2581.26  2598.39  2653.14  2701.95  2755.75  2810.47  2864.88  2906.63  2950.05  2992.04  3043.16  3096.51  3139.11  3166.70  3145.47  3136.20  3134.93  3130.83  3129.37  3135.57  3130.83  3103.44  3071.99  3047.58  3038.37  3007.99  2953.70  2922.64  2894.40  2869.01  2836.20  2793.18  2764.77  2742.00  2713.20  2682.16  2651.89  2624.83  2600.51  2579.52  2563.80  2552.12  2540.91  2535.80  2541.45  2559.45  2557.45  2548.89  2547.90  2549.62  2562.49  2585.11  2612.43  2644.47  2697.47  2744.81  2797.32  2827.97  2854.74  2839.97  2825.35
2608.38  2609.23  2609.66  2606.73  2603.66  2601.17  2597.57  2592.62  2593.71  2608.44  2645.74  2684.09  2713.55  2737.75  2765.79  2793.21  2807.38  2814.25  2828.09  2847.41  2844.26  2845.05  2851.36  2855.90  2854.23  2861.72  2865.67  2872.78  2903.63  2927.52  2946.55  2963.03  2975.48  2978.22  2980.67  2985.77  2988.40  2994.20  3002.55  3016.33  3032.76  3044.47  3056.28  3080.43  3101.38  3120.14  3152.30  3185.95  3210.63  3224.45  3242.97  3272.52  3284.24  3299.69  3317.17  3336.95  3414.14  3505.37  3498.37  3492.57  3493.13  3501.71  3511.45  3537.62  3591.98  3652.13  3694.04  3788.97  3693.05  3642.34  3599.67  3572.26  3549.20  3526.83  3501.87  3480.64  3462.67  3434.58  3404.49  3377.35  3353.34  3335.55  3328.93  3328.17  3322.78  3314.90  3306.03  3297.12  3289.74  3282.83  3273.11  3271.98  3276.25  3276.38  3273.61  3265.76  3255.61  3241.65  3220.92  3192.66  3151.56  3110.28  3088.78  3078.59  3062.63  3042.56  3018.95  3000.16  2978.91  2949.40  2931.67  2912.02  2885.13  2860.61  2839.60  2821.88  2804.18  2781.48  2763.31  2744.62  2727.26  2703.65  2679.97  2669.77  2655.85  2638.10  2617.03  2593.25  2568.56  2543.55  2515.14  2485.16  2452.22  2420.89  2393.00  2384.61  2396.71  2397.03  2393.11  2386.72  2384.53  2382.82  2386.72  2393.94  2391.38  2386.70  2396.60  2476.81  2530.61  2542.71  2601.52  2651.99  2709.03  2772.44  2817.10  2862.75  2906.92  2958.26  3002.89  3048.22  3092.31  3131.93  3132.88  3109.50  3108.13  3108.35  3106.87  3112.53  3120.95  3081.35  3045.51  3020.51  3019.44  3019.50  3017.48  2987.21  2921.99  2895.07  2869.19  2842.07  2806.89  2771.61  2737.48  2704.45  2672.05  2643.01  2616.75  2589.96  2564.08  2538.89  2522.29  2512.70  2505.78  2502.66  2514.45  2535.50  2544.23  2547.07  2546.14  2552.93  2570.78  2589.97  2619.43  2667.97  2716.35  2760.51  2802.01  2820.53  2805.24  2793.82
2606.84  2606.62  2607.63  2606.51  2604.32  2599.97  2595.14  2590.54  2587.06  2593.89  2616.84  2654.20  2688.05  2714.72  2743.86  2771.28  2783.39  2794.83  2811.83  2824.57  2820.49  2822.69  2832.28  2837.68  2832.88  2831.20  2834.37  2860.46  2890.69  2917.07  2927.11  2938.77  2947.46  2949.37  2955.53  2962.44  2965.90  2976.12  2987.36  2995.36  3009.00  3021.94  3046.67  3069.19  3093.95  3118.16  3143.24  3169.61  3201.10  3210.66  3232.38  3260.49  3270.63  3281.57  3297.10  3348.29  3456.03  3475.90  3476.65  3477.75  3477.66  3482.82  3489.91  3508.14  3564.43  3620.11  3670.10  3755.53  3716.29  3670.03  3623.02  3581.90  3552.47  3524.01  3498.61  3473.73  3450.23  3427.20  3396.64  3363.95  3344.07  3333.24  3330.55  3325.16  3317.05  3307.72  3296.78  3286.01  3278.68  3271.90  3264.03  3254.12  3248.05  3247.77  3246.84  3242.92  3234.80  3219.27  3199.39  3176.03  3133.94  3100.75  3079.61  3063.70  3047.22  3024.28  3005.96  2984.26  2966.41  2948.32  2923.76  2903.57  2876.32  2850.50  2827.91  2808.35  2789.23  2767.78  2746.25  2728.98  2708.88  2687.04  2668.64  2654.26  2637.57  2617.25  2596.84  2569.87  2545.25  2521.94  2493.18  2463.82  2433.82  2408.04  2386.42  2373.97  2390.81  2391.66  2388.31  2381.73  2379.42  2376.56  2378.24  2385.26  2383.60  2378.40  2393.99  2447.95  2482.33  2581.38  2620.20  2654.34  2705.75  2759.77  2808.61  2862.80  2920.14  2969.86  3018.17  3069.20  3113.92  3133.78  3105.22  3089.22  3091.47  3087.77  3083.66  3095.78  3089.57  3021.89  3004.34  2983.74  2975.42  2988.10  2989.73  2980.58  2929.36  2904.89  2890.68  2865.48  2837.77  2798.48  2739.78  2689.12  2662.14  2631.70  2602.85  2578.96  2554.46  2529.05  2506.56  2487.29  2479.19  2477.62  2489.85  2526.95  2546.20  2550.00  2548.38  2545.11  2555.52  2576.94  2609.34  2644.43  2689.20  2732.57  2777.25  2783.50  2769.60  2759.89
2605.61  2604.08  2605.01  2602.46  2602.14  2599.57  2594.47  2589.07  2583.89  2582.13  2589.89  2615.39  2649.14  2683.16  2715.11  2738.95  2760.30  2776.68  2784.85  2790.20  2790.23  2796.45  2807.45  2807.09  2807.32  2797.54  2809.93  2840.50  2875.03  2908.10  2916.11  2916.69  2923.90  2924.27  2927.44  2937.33  2948.50  2957.49  2966.68  2973.83  2982.93  3009.30  3035.64  3057.74  3087.28  3113.04  3129.27  3160.20  3185.33  3198.66  3225.60  3250.90  3256.61  3263.14  3283.41  3364.52  3445.08  3451.07  3454.09  3458.70  3460.16  3463.02  3468.38  3480.82  3535.22  3603.36  3650.80  3696.94  3730.57  3698.74  3660.11  3614.95  3581.39  3546.88  3509.59  3464.32  3441.56  3418.49  3389.76  3362.63  3343.70  3334.24  3331.86  3323.48  3311.87  3299.35  3286.05  3275.43  3268.07  3262.07  3256.19  3248.37  3240.01  3232.22  3224.73  3215.53  3204.86  3191.20  3172.64  3162.29  3159.12  3111.41  3073.12  3053.26  3034.22  3013.85  2991.02  2971.44  2966.25  2944.81  2910.20  2889.75  2868.40  2845.41  2819.95  2793.46  2772.11  2757.41  2737.03  2709.65  2691.24  2675.69  2659.07  2639.10  2618.57  2595.71  2573.16  2546.16  2521.46  2498.41  2477.72  2453.28  2421.60  2399.50  2378.25  2369.91  2381.10  2386.30  2384.28  2377.76  2374.59  2371.26  2370.52  2378.28  2376.37  2372.34  2387.84  2434.35  2525.70  2582.60  2628.38  2670.44  2725.03  2779.76  2830.22  2867.51  2924.85  2981.61  3025.89  3077.28  3121.33  3117.80  3086.44  3071.93  3069.76  3059.71  3055.13  3066.31  3056.63  3000.79  2972.47  2961.27  2947.89  2945.72  2944.72  2937.55  2935.30  2926.22  2897.88  2853.40  2814.84  2759.46  2702.83  2671.58  2644.82  2616.89  2589.99  2561.17  2538.03  2517.01  2495.85  2474.21  2457.03  2450.74  2461.85  2499.98  2520.02  2529.62  2534.25  2537.27  2546.18  2569.57  2599.18  2644.00  2696.67  2732.74  2750.22  2742.93  2734.76  2731.64
2604.09  2602.00  2602.26  2601.62  2597.30  2596.74  2592.75  2589.59  2583.92  2578.04  2575.66  2587.09  2619.81  2652.90  2684.11  2709.69  2727.40  2742.36  2751.81  2758.47  2759.44  2761.14  2768.06  2764.51  2764.52  2769.26  2807.45  2841.72  2872.53  2899.80  2901.33  2892.97  2895.13  2892.20  2903.42  2910.15  2926.50  2940.74  2944.22  2943.63  2957.44  2988.27  3023.61  3046.45  3076.65  3092.68  3110.76  3145.27  3164.47  3188.30  3219.07  3237.30  3241.84  3249.90  3274.12  3366.15  3425.12  3427.84  3430.21  3438.18  3440.19  3441.20  3446.41  3458.08  3505.97  3571.87  3624.52  3690.85  3735.73  3682.80  3643.88  3609.83  3581.94  3553.68  3514.07  3474.43  3434.04  3410.40  3386.39  3364.73  3348.81  3335.37  3327.01  3316.11  3302.59  3288.61  3276.61  3266.94  3260.14  3254.61  3249.37  3243.03  3235.18  3225.74  3213.32  3194.26  3175.99  3163.99  3145.01  3137.26  3144.35  3124.74  3064.80  3038.76  3017.94  3002.86  2981.34  2954.73  2939.64  2942.61  2907.99  2879.90  2850.68  2830.34  2808.87  2789.97  2768.49  2749.95  2729.09  2698.85  2679.15  2665.61  2650.42  2624.66  2605.86  2579.09  2558.21  2535.12  2513.43  2487.43  2463.68  2440.47  2410.50  2386.34  2368.53  2362.14  2367.85  2380.96  2379.93  2373.12  2369.45  2365.60  2363.91  2371.77  2370.65  2370.59  2376.11  2455.90  2555.25  2611.34  2651.74  2693.88  2746.57  2806.64  2854.22  2893.15  2940.03  2986.52  3027.66  3073.25  3118.22  3101.01  3069.67  3054.24  3043.98  3030.23  3017.21  3015.45  3015.30  2987.04  2958.39  2940.11  2928.47  2923.52  2910.72  2893.89  2877.91  2869.53  2854.28  2809.88  2765.98  2722.26  2692.28  2663.84  2637.72  2605.58  2574.74  2547.18  2521.04  2499.90  2481.04  2460.97  2442.07  2429.92  2427.60  2453.90  2487.86  2503.01  2514.45  2518.53  2533.16  2557.10  2600.64  2647.05  2680.20  2700.18  2711.05  2708.56  2705.18  2705.90
2602.36  2600.22  2598.94  2598.91  2594.60  2589.78  2590.53  2584.50  2580.72  2575.49  2569.54  2572.21  2590.78  2621.27  2653.38  2674.02  2691.51  2706.70  2715.49  2725.91  2720.12  2722.69  2722.58  2727.70  2728.24  2765.94  2814.61  2841.01  2858.97  2877.04  2880.10  2869.57  2865.04  2868.11  2880.49  2885.67  2903.20  2915.47  2919.24  2930.09  2947.07  2976.67  3012.61  3035.77  3064.32  3078.36  3104.15  3133.00  3158.20  3181.52  3203.41  3218.75  3223.98  3240.19  3277.00  3376.22  3401.18  3409.05  3412.16  3416.48  3421.37  3420.49  3424.32  3436.85  3474.48  3550.20  3615.07  3679.94  3711.81  3684.10  3633.50  3587.00  3562.97  3541.18  3514.32  3487.59  3442.24  3417.67  3395.99  3372.93  3349.76  3334.56  3321.53  3307.75  3293.66  3279.69  3267.78  3259.60  3253.11  3247.72  3244.13  3239.71  3233.37  3222.89  3207.36  3186.56  3162.74  3142.68  3128.51  3115.71  3103.32  3084.75  3055.39  3025.24  2988.12  2975.49  2963.78  2938.97  2916.16  2898.10  2879.53  2858.03  2834.50  2807.24  2788.18  2767.09  2749.01  2728.84  2709.42  2685.10  2665.23  2652.49  2637.14  2613.60  2587.48  2565.09  2544.26  2522.62  2497.61  2473.61  2449.88  2418.82  2390.45  2370.93  2354.77  2354.32  2361.93  2369.42  2373.66  2368.98  2364.28  2361.36  2358.10  2366.12  2366.34  2364.35  2368.92  2466.25  2547.85  2605.72  2644.03  2690.32  2743.93  2791.12  2833.92  2889.70  2943.44  2991.55  3041.65  3077.61  3114.43  3081.19  3052.38  3038.80  3028.73  3018.83  3000.98  2988.86  2983.39  2974.35  2955.57  2929.35  2913.04  2902.26  2891.37  2877.34  2854.47  2826.18  2798.05  2766.48  2734.32  2704.90  2683.82  2661.28  2631.92  2602.17  2567.08  2537.65  2509.38  2480.27  2461.45  2445.17  2429.05  2413.56  2405.67  2425.46  2459.31  2480.07  2489.15  2500.52  2526.53  2568.01  2605.55  2633.17  2651.52  2666.67  2676.72  2672.56  2671.75  2675.20
2600.03  2597.99  2595.36  2594.49  2593.21  2585.79  2583.62  2580.42  2575.65  2574.22  2567.55  2563.88  2568.07  2584.84  2615.73  2641.95  2659.23  2665.95  2669.27  2681.97  2678.65  2680.35  2682.02  2690.65  2723.20  2775.20  2808.20  2828.87  2839.86  2855.05  2851.76  2839.97  2835.12  2848.12  2855.05  2870.76  2885.03  2897.47  2902.58  2917.01  2933.00  2971.33  2999.15  3028.65  3053.22  3073.47  3099.85  3126.87  3151.27  3169.25  3188.99  3199.97  3206.33  3233.80  3309.42  3363.49  3376.07  3390.69  3397.72  3396.70  3402.13  3401.16  3407.34  3419.98  3447.38  3522.09  3600.55  3658.50  3664.63  3687.64  3641.52  3578.02  3557.30  3536.12  3514.07  3486.59  3457.85  3436.34  3409.77  3385.97  3362.45  3333.61  3314.80  3299.81  3286.33  3273.89  3262.09  3252.26  3245.28  3241.14  3238.46  3234.34  3228.40  3220.11  3202.26  3181.96  3157.81  3136.40  3122.15  3109.09  3091.09  3073.07  3054.28  3017.14  2973.10  2954.62  2936.60  2914.40  2890.06  2872.24  2856.16  2835.83  2821.53  2805.52  2780.26  2755.07  2734.24  2716.22  2692.80  2672.84  2648.82  2639.69  2620.95  2593.19  2574.70  2548.16  2526.28  2503.28  2481.81  2459.16  2431.69  2400.51  2368.88  2352.34  2341.94  2340.84  2351.99  2358.95  2366.60  2362.36  2358.94  2356.24  2353.80  2361.58  2361.05  2355.69  2361.59  2443.19  2536.97  2598.59  2635.40  2677.71  2723.86  2783.20  2832.45  2887.31  2944.14  2992.26  3048.31  3094.00  3113.56  3062.62  3034.45  3024.78  3015.57  3004.80  2994.01  2978.66  2965.32  2956.31  2948.57  2926.45  2905.74  2893.33  2881.28  2866.88  2843.68  2814.57  2784.78  2754.28  2727.20  2703.35  2683.88  2660.57  2628.74  2595.55  2561.06  2527.47  2495.50  2459.32  2440.34  2426.75  2412.28  2398.05  2385.19  2394.58  2413.72  2437.62  2445.99  2473.65  2503.61  2546.96  2590.83  2617.26  2624.93  2634.33  2634.92  2635.89  2645.49  2644.58
